2.865 2.875 2.855 2.775 2.735 2.785 2.785 2.875 2.923 3.153 2.773 2.753 2.853 2.763 2.613 2.613 2.483 2.493 2.483 2.493 2.503 2.483 2.483 2.673 2.791 2.431 2.361 2.381 2.551 2.531 2.571 2.541 2.404 2.334 2.344 2.394 2.454 2.464 2.404 2.374 2.475 2.355 2.405 2.395 2.365 2.395 2.375 2.405 2.448 2.328 2.238 2.268 2.158 2.238 2.478 2.428 2.460 2.510 2.620 2.520 2.690 2.590 2.560 2.420 2.439 2.489 2.499 2.459 2.489 2.509 2.399 2.649 2.889 2.859 2.949 2.979 2.809 2.809 2.699 2.749 2.703 2.593 2.443 2.343 2.363 2.303 2.333 2.503 2.438 2.438 2.598 2.598 2.588 2.608 2.618 2.658 2.669 2.609 2.689 2.509 2.579 2.459 2.389 2.429 2.313 2.313 2.353 2.393 2.513 2.673 2.423 2.473 2.425 2.285 2.295 2.375 2.165 2.305 2.455 2.345 2.306 2.226 2.246 2.366 2.316 2.326 2.286 2.556 2.588 2.568 2.488 2.498 2.598 2.568 2.528 2.478 2.418 2.258 2.318 2.358 2.388 2.468 2.308 2.288 2.292 2.252 2.262 2.182 2.192 2.212 2.202 2.202 2.253 2.163 2.233 2.283 2.333 2.413 2.553 2.533 2.478 2.528 2.628 2.398 2.588 2.718 2.598 2.368 2.407 2.257 2.157 2.107 2.257 2.157 2.267 2.167 2.042 2.102 2.222 2.332 2.382 2.332 2.242 2.162 2.080 2.010 2.010 1.860 1.840 2.330 2.620 2.660 2.735 2.745 2.835 3.035 2.705 2.495 2.415 2.415 2.421 2.561 2.721 2.761 2.761 2.791 2.881 2.861 2.933 3.043 2.873 2.953 2.993 2.983 2.933 2.813 2.619 2.549 2.629 2.549 2.689 2.739 2.989 2.889 3.015 2.975 2.955 3.155 3.045 3.155 3.115 3.135 3.151 3.131 3.071 3.111 3.191 3.301 3.381 3.481 3.594 3.534 3.674 3.334 2.784 2.414 2.304 2.194 2.141 2.141 2.121 2.211 2.381 2.441 2.611 2.901 2.939 2.929 2.829 2.149 1.619 1.629 1.699 1.809 1.776 1.636 1.486 1.246 1.276 1.296 1.266 1.406 1.512 1.512 1.592 1.552 1.592 1.642 1.752 1.662 1.688 1.698 1.758 1.538 1.368 1.288 1.308 1.348 1.614 1.644 1.764 1.794 1.824 0.814 0.614 0.564 0.926 1.776 1.766 1.696 1.766 1.736 1.566 1.636 1.585 1.615 1.505 1.705 1.605 1.595 1.435 1.385 1.419 1.449 1.529 1.629 1.629 1.619 1.749 1.819 1.774 1.764 1.734 1.704 1.814 1.894 1.844 1.764 1.792 1.832 1.852 1.912 1.942 1.962 2.002 1.992 2.147 2.187 2.277 2.407 2.477 2.497 2.447 2.517 2.447 2.307 2.337 2.347 2.117 2.207 2.347 2.297 2.295 2.265 2.235 2.175 2.155 2.245 2.205 2.205 2.463 2.313 2.303 2.273 2.343 2.343 2.283 2.383 2.416 2.126 2.096 2.056 1.896 1.896 1.846 1.816 1.785 1.715 1.715 1.735 1.685 1.675 1.655 1.675 1.632 1.742 1.782 1.932 2.102 2.332 2.272 2.342 2.262 2.232 2.172 2.252 2.332 2.252 2.192 2.202 2.170 2.240 2.310 2.640 2.710 2.820 2.700 2.640 2.649 2.649 2.789 2.559 2.739 2.899 2.889 2.909 2.716 2.716 2.646 2.586 2.616 2.566 2.606 2.746 2.753 2.873 2.673 2.503 2.493 2.443 2.183 2.213 2.215 2.195 2.175 2.315 2.335 2.335 2.365 2.395 2.375 2.335 2.355 2.365 2.435 2.365 2.275 2.345 2.276 2.396 2.346 2.336 2.306 2.276
2.805 2.815 2.725 2.765 2.795 2.875 2.765 3.005 2.753 2.673 2.603 2.643 2.763 2.673 2.533 2.563 2.433 2.483 2.483 2.483 2.513 2.523 2.503 2.603 2.551 2.451 2.411 2.391 2.471 2.531 2.811 2.571 2.434 2.514 2.464 2.404 2.424 2.444 2.444 2.384 2.405 2.445 2.475 2.415 2.365 2.375 2.345 2.435 2.458 2.288 2.198 2.248 2.408 2.608 2.578 2.508 2.450 2.540 2.410 2.540 2.540 2.550 2.630 2.550 2.509 2.539 2.559 2.559 2.579 2.649 2.469 2.609 2.889 2.859 2.879 2.779 2.769 2.799 2.809 2.839 2.853 2.693 2.453 2.333 2.373 2.283 2.353 2.493 2.418 2.458 2.548 2.688 2.608 2.608 2.618 2.628 2.639 2.649 2.679 2.489 2.459 2.479 2.359 2.289 2.393 2.313 2.353 2.403 2.333 2.413 2.413 2.503 2.465 2.245 2.335 2.195 2.315 2.335 2.285 2.185 2.206 2.206 2.146 2.236 2.506 2.286 2.216 2.666 2.708 2.698 2.708 2.618 2.608 2.548 2.558 2.498 2.428 2.318 2.408 2.388 2.418 2.458 2.408 2.328 2.272 2.202 2.242 2.192 2.292 2.212 2.172 2.232 2.203 2.193 2.193 2.313 2.413 2.413 2.543 2.573 2.508 2.518 2.488 2.578 2.588 2.688 2.678 2.458 2.277 2.127 2.067 2.577 2.407 2.207 2.187 2.097 1.982 2.022 2.072 2.112 2.162 2.202 2.112 2.032 2.070 1.970 1.920 1.860 1.750 1.990 2.560 2.700 2.765 2.735 2.775 2.845 2.665 2.555 2.455 2.465 2.481 2.521 2.661 2.841 2.861 2.881 2.911 2.891 2.963 2.953 2.893 2.933 3.073 3.053 3.043 2.903 2.659 2.599 2.579 2.589 2.719 2.679 4.289 4.509 4.545 4.555 3.075 3.165 3.065 3.155 3.145 3.095 3.151 3.141 3.091 3.001 3.171 3.261 3.351 3.401 3.534 3.534 3.334 3.374 2.894 2.474 2.364 2.374 2.171 2.171 2.121 2.281 2.381 2.411 2.631 2.861 2.869 2.909 2.849 2.519 1.679 1.669 1.819 1.699 1.666 1.676 1.446 1.206 1.286 1.266 1.286 1.456 1.462 1.532 1.632 1.632 1.652 1.632 1.672 1.522 1.518 1.468 1.528 1.548 1.408 1.288 1.308 1.318 1.424 1.584 1.704 1.784 1.534 1.334 0.804 0.874 1.726 1.856 1.716 1.746 1.716 1.706 1.656 1.526 1.545 1.525 1.565 1.615 1.635 1.655 1.585 1.425 1.429 1.409 1.499 1.619 1.599 1.639 1.759 1.799 1.814 1.814 1.824 1.844 1.864 1.944 1.984 1.934 2.012 2.032 2.002 1.962 1.942 1.972 2.052 2.242 2.447 2.307 2.417 2.507 2.507 2.477 2.497 2.527 2.547 2.437 2.237 2.127 2.117 2.217 2.227 2.177 2.235 2.275 2.235 2.225 2.115 2.115 2.175 2.135 2.453 2.413 2.293 2.303 2.223 2.243 2.233 2.283 2.246 2.206 2.066 2.036 1.906 1.856 1.846 1.746 1.695 1.665 1.695 1.725 1.745 1.765 1.775 1.775 1.742 1.832 1.932 2.172 2.372 2.392 2.312 2.332 2.262 2.342 2.202 2.192 2.292 2.312 2.232 2.192 2.250 2.230 2.270 2.570 2.580 2.580 2.690 2.720 2.669 2.679 2.729 2.809 2.709 2.949 2.929 2.929 2.706 2.696 2.786 2.806 2.776 2.676 2.646 2.976 3.053 3.013 2.643 2.473 2.603 2.483 2.183 2.203 2.225 2.205 2.175 2.245 2.425 2.355 2.325 2.345 2.405 2.405 2.415 2.425 2.435 2.385 2.305 2.365 2.446 2.386 2.366 2.296 2.276 2.276
2.805 2.815 2.715 2.765 2.825 2.865 2.775 2.925 2.703 2.503 2.323 2.743 2.753 2.713 2.543 2.563 2.473 2.473 2.483 2.493 2.523 2.493 2.503 2.573 2.561 2.501 2.451 2.461 2.471 2.481 2.541 2.561 2.584 2.414 2.524 2.414 2.404 2.454 2.474 2.494 2.525 2.615 2.565 2.435 2.375 2.415 2.325 2.395 2.508 2.298 2.258 2.378 2.598 2.608 2.558 2.458 2.530 2.530 2.500 2.370 2.540 2.650 2.640 2.610 2.559 2.569 2.639 2.699 2.709 2.639 2.469 2.599 2.819 2.889 2.839 2.869 2.899 2.899 2.869 2.829 2.863 2.713 2.513 2.363 2.353 2.363 2.333 2.503 2.458 2.468 2.528 2.668 2.608 2.618 2.628 2.638 2.649 2.589 2.669 2.489 2.529 2.389 2.289 2.229 2.273 2.263 2.413 2.283 2.423 2.403 2.403 2.443 2.455 2.255 2.205 2.215 2.295 2.535 2.215 2.215 2.166 2.116 2.206 2.426 2.216 2.346 2.316 2.606 2.678 2.608 2.748 2.618 2.618 2.528 2.498 2.458 2.418 2.378 2.538 2.648 2.668 2.528 2.398 2.308 2.362 2.292 2.232 2.252 2.392 2.272 2.282 2.342 2.403 2.293 2.213 2.313 2.383 2.373 2.543 2.523 2.508 2.488 2.538 2.588 2.628 2.588 2.458 2.418 2.137 2.007 2.017 2.387 2.237 2.127 2.087 1.957 1.912 1.962 1.982 2.092 2.042 2.082 1.892 1.932 1.880 1.830 1.820 1.820 1.700 2.240 2.580 2.660 2.715 2.705 2.635 2.685 2.665 2.595 2.495 2.515 2.491 2.541 2.631 2.821 2.891 2.941 2.911 2.901 2.953 2.943 2.933 2.973 3.193 3.133 3.063 2.923 2.709 2.579 2.619 2.609 2.669 2.709 2.969 4.419 4.905 4.585 3.135 3.105 3.115 3.185 3.125 3.075 3.151 3.151 3.101 3.031 3.081 3.211 3.341 3.391 3.464 3.564 3.584 3.384 2.974 2.534 2.484 2.514 2.241 2.191 2.171 2.311 2.381 2.411 2.651 2.841 2.979 3.009 2.939 2.229 1.709 1.709 1.699 1.599 1.696 1.656 1.376 1.276 1.276 1.296 1.286 1.376 1.472 1.602 1.622 1.672 1.682 1.722 1.522 1.502 1.508 1.468 1.598 1.588 1.468 1.298 1.308 1.328 1.384 1.574 1.784 1.714 1.574 1.784 1.534 1.474 1.966 1.836 1.786 1.806 1.916 1.706 1.666 1.636 1.595 1.625 1.565 1.615 1.735 1.665 1.595 1.525 1.429 1.389 1.479 1.549 1.539 1.569 1.679 1.689 1.754 1.794 1.864 1.954 1.974 2.004 2.054 2.094 2.102 2.092 2.072 2.012 1.962 2.032 2.252 2.522 2.537 2.447 2.547 2.557 2.497 2.457 2.507 2.557 2.567 2.247 2.277 2.227 2.057 2.117 2.117 2.067 2.215 2.245 2.215 2.035 2.015 2.135 2.115 2.145 2.263 2.283 2.263 2.253 2.153 2.153 2.283 2.083 2.006 2.086 2.006 2.006 1.916 1.826 1.786 1.746 1.715 1.755 1.765 1.795 1.825 1.875 1.935 1.925 1.972 2.052 2.142 2.242 2.412 2.482 2.412 2.362 2.552 2.592 2.322 2.242 2.382 2.312 2.202 2.212 2.220 2.200 2.420 2.460 2.450 2.460 2.470 2.600 2.729 2.649 2.659 2.719 2.879 2.959 2.989 2.699 2.686 2.706 2.776 2.846 2.896 2.746 2.566 2.926 2.893 2.863 2.683 2.463 2.503 2.333 2.173 2.183 2.235 2.235 2.415 2.315 2.385 2.385 2.435 2.405 2.425 2.395 2.385 2.405 2.405 2.395 2.465 2.455 2.476 2.416 2.286 2.196 2.176 2.186
2.785 2.835 3.165 2.735 2.995 2.785 2.785 2.795 2.603 2.493 2.433 2.713 2.703 2.703 2.523 2.523 2.543 2.573 2.603 2.523 2.543 2.583 2.623 2.573 2.571 2.511 2.441 2.521 2.511 2.631 2.551 2.561 2.574 2.594 2.664 2.614 2.424 2.514 2.634 2.524 2.555 2.575 2.565 2.435 2.365 2.325 2.245 2.335 2.478 2.378 2.338 2.528 2.598 2.568 2.568 2.578 2.480 2.480 2.540 2.470 2.530 2.540 2.610 2.650 2.689 2.599 2.689 2.689 2.709 2.619 2.499 2.559 2.809 2.889 2.899 2.869 2.899 2.919 2.839 2.839 2.633 2.663 2.633 2.423 2.383 2.413 2.333 2.423 2.468 2.458 2.498 2.628 2.608 2.618 2.628 2.578 2.659 2.649 2.619 2.519 2.439 2.329 2.339 2.279 2.273 2.313 2.333 2.353 2.363 2.453 2.603 2.383 2.425 2.345 2.285 2.225 2.115 2.145 2.285 2.235 2.126 2.146 2.276 2.216 2.296 2.236 2.416 2.516 2.638 2.588 2.758 2.618 2.668 2.548 2.548 2.568 2.508 2.588 2.568 2.608 2.708 2.608 2.418 2.528 2.592 2.362 2.392 2.322 2.412 2.362 2.372 2.392 2.353 2.253 2.283 2.273 2.313 2.403 2.533 2.473 2.508 2.478 2.518 2.488 2.308 2.208 2.128 2.228 2.167 2.047 2.117 2.037 2.217 2.007 1.937 1.927 1.912 1.932 1.952 1.962 1.912 1.882 1.942 1.942 1.960 1.980 2.160 2.280 2.470 2.440 2.570 2.510 2.605 2.615 2.585 2.595 2.585 2.615 2.535 2.525 2.501 2.541 2.691 2.841 2.911 2.771 2.801 2.791 2.793 2.873 2.863 2.823 3.043 3.143 3.063 2.963 3.029 2.629 2.609 2.629 2.669 2.729 2.839 4.759 3.205 4.915 3.175 4.605 4.835 3.365 3.175 3.055 3.131 3.151 3.091 2.991 3.101 3.181 3.301 3.361 3.444 3.524 3.504 3.404 3.164 2.654 2.414 2.384 2.161 2.201 2.191 2.271 2.311 2.411 2.601 2.781 2.849 2.889 2.699 2.489 1.729 1.719 1.769 1.739 1.866 1.476 1.366 1.306 1.306 1.276 1.286 1.366 1.492 1.592 1.642 1.692 1.642 1.612 1.532 1.512 1.608 1.558 1.608 1.648 1.468 1.338 1.328 1.318 1.404 1.544 1.594 1.624 1.644 1.754 1.604 1.414 1.966 1.786 1.906 1.826 1.816 1.986 1.556 1.666 1.675 1.595 1.555 1.635 1.665 1.565 1.615 1.695 1.589 1.499 1.589 1.529 1.509 1.569 1.579 1.599 1.704 1.774 1.864 1.914 1.994 2.024 2.084 2.144 2.192 2.142 2.032 1.992 2.022 2.252 2.482 2.542 2.517 2.577 2.587 2.527 2.467 2.407 2.437 2.567 2.517 2.247 2.237 2.197 2.097 2.017 2.097 2.097 2.035 2.025 2.105 2.025 2.075 2.125 2.075 2.145 2.253 2.343 2.163 2.193 2.193 2.273 2.163 2.063 1.936 1.926 1.946 1.956 1.926 1.846 1.806 1.796 1.805 1.785 1.815 1.845 1.935 1.995 1.995 2.005 2.052 2.062 2.182 2.252 2.312 2.462 2.442 2.422 2.462 2.412 2.402 2.512 2.542 2.282 2.252 2.222 2.170 2.240 2.360 2.380 2.410 2.450 2.470 2.640 2.739 2.839 2.729 2.679 2.669 2.719 2.709 2.629 2.646 2.706 2.746 2.796 2.836 2.586 2.536 2.626 2.813 2.753 2.553 2.453 2.433 2.373 2.143 2.203 2.235 2.225 2.495 2.285 2.365 2.375 2.445 2.455 2.465 2.485 2.475 2.465 2.415 2.305 2.365 2.235 2.296 2.316 2.186 2.196 2.116 2.076
2.845 2.925 3.065 3.065 2.785 3.225 2.955 2.745 2.583 2.533 2.553 2.813 2.763 2.733 2.533 2.553 2.593 2.713 2.703 2.683 2.613 2.653 2.623 2.593 2.551 2.521 2.531 2.551 2.651 2.781 2.671 2.591 2.634 2.704 2.574 2.554 2.474 2.554 2.434 2.464 2.515 2.525 2.515 2.525 2.385 2.325 2.235 2.305 2.498 2.488 2.438 2.448 2.578 2.568 2.618 2.588 2.640 2.580 2.590 2.530 2.430 2.420 2.540 2.810 2.699 2.649 2.689 2.619 2.629 2.519 2.539 2.489 2.589 2.939 3.039 2.859 2.869 2.829 2.829 2.819 2.823 2.903 2.693 2.533 2.363 2.383 2.393 2.423 2.488 2.438 2.488 2.588 2.618 2.608 2.588 2.578 2.539 2.529 2.499 2.439 2.379 2.419 2.339 2.349 2.343 2.343 2.343 2.403 2.403 2.383 2.403 2.353 2.435 2.315 2.255 2.195 2.125 2.225 2.085 2.115 2.266 2.256 2.316 2.266 2.386 2.286 2.396 2.606 2.598 2.688 2.668 2.658 2.688 2.748 2.608 2.738 2.638 2.638 2.608 2.598 2.738 2.618 2.488 2.578 2.652 2.462 2.452 2.392 2.402 2.452 2.442 2.452 2.413 2.263 2.263 2.243 2.333 2.443 2.483 2.533 2.528 2.458 2.418 2.368 2.028 2.058 2.108 2.178 2.217 2.147 1.997 1.957 1.877 1.867 1.917 1.957 1.882 1.922 1.922 2.052 2.102 2.122 2.172 2.242 2.170 2.140 2.160 2.270 2.340 2.390 2.480 2.550 2.615 2.595 2.625 2.645 2.635 2.615 2.575 2.575 2.501 2.501 2.671 2.721 2.781 2.771 2.771 2.851 2.843 2.943 2.923 2.913 2.953 3.053 3.033 2.943 2.989 2.709 2.599 2.649 2.619 2.799 2.909 3.799 4.125 4.655 4.645 4.835 4.875 3.265 3.205 3.105 3.101 3.141 3.101 3.011 3.101 3.161 3.261 3.321 3.444 3.564 3.564 3.494 3.254 2.744 2.404 2.224 2.161 2.221 2.241 2.201 2.261 2.441 2.571 2.781 2.929 2.999 2.999 2.779 1.729 1.759 1.849 2.139 1.966 1.486 1.416 1.396 1.266 1.316 1.256 1.336 1.462 1.522 1.582 1.632 1.612 1.542 1.492 1.552 1.518 1.538 1.558 1.568 1.578 1.388 1.328 1.328 1.394 1.534 1.664 1.644 1.664 1.904 2.154 1.334 2.256 1.926 1.746 1.686 1.856 1.946 1.876 1.686 1.585 1.585 1.485 1.535 1.595 1.595 1.615 1.655 1.729 1.649 1.669 1.709 1.569 1.619 1.609 1.689 1.754 1.844 1.914 1.914 1.974 2.034 2.074 2.134 2.152 2.122 2.022 2.062 2.252 2.662 2.652 2.572 2.627 2.627 2.557 2.517 2.427 2.367 2.387 2.447 2.267 2.247 2.347 2.347 2.247 1.977 2.047 2.077 2.065 2.055 2.015 2.035 2.025 2.045 2.065 2.105 2.093 2.323 2.313 2.173 2.203 2.133 2.033 1.943 1.896 1.896 1.916 1.886 1.926 1.896 1.866 1.896 1.915 1.895 1.915 1.925 2.025 2.095 1.925 2.005 2.332 2.212 2.202 2.352 2.322 2.542 2.472 2.492 2.472 2.422 2.422 2.382 2.352 2.242 2.232 2.172 2.270 2.420 2.390 2.350 2.400 2.400 2.650 2.690 2.689 2.769 2.779 2.699 2.659 2.649 2.659 2.639 2.686 2.706 2.786 2.746 2.666 2.386 2.386 2.866 2.773 2.723 2.603 2.273 2.223 2.233 2.233 2.253 2.265 2.245 2.525 2.505 2.495 2.435 2.465 2.495 2.495 2.515 2.495 2.235 2.165 2.125 2.215 2.185 2.146 2.216 2.236 2.136 2.106 2.066
2.865 2.945 2.885 3.045 2.645 2.805 2.685 2.695 2.713 2.623 2.573 2.703 2.753 2.743 2.533 2.533 2.783 2.753 2.723 2.783 2.683 2.743 2.653 2.653 2.601 2.581 2.541 2.581 2.671 2.741 2.681 2.621 2.494 2.504 2.554 2.494 2.434 2.444 2.464 2.414 2.475 2.495 2.465 2.415 2.415 2.335 2.265 2.265 2.458 2.518 2.498 2.558 2.528 2.638 2.588 2.628 2.570 2.630 2.530 2.470 2.560 2.600 2.680 2.730 2.739 2.829 2.659 2.589 2.489 2.459 2.539 2.479 2.509 2.959 2.999 2.939 2.909 2.889 2.929 2.889 2.903 2.953 2.693 2.443 2.383 2.403 2.473 2.523 2.438 2.378 2.478 2.488 2.538 2.538 2.528 2.498 2.479 2.409 2.369 2.329 2.379 2.429 2.329 2.309 2.313 2.343 2.433 2.443 2.423 2.393 2.413 2.403 2.395 2.345 2.265 2.175 2.165 2.165 2.175 2.235 2.476 2.436 2.366 2.346 2.296 2.336 2.446 2.706 2.688 2.708 2.808 2.738 2.698 2.748 2.608 2.668 2.688 2.608 2.618 2.668 2.598 2.608 2.568 2.758 2.582 2.422 2.542 2.432 2.442 2.522 2.542 2.472 2.393 2.303 2.273 2.223 2.333 2.413 2.433 2.473 2.488 2.438 2.368 2.308 2.218 2.058 2.098 2.068 2.287 2.147 1.997 1.947 1.967 1.837 1.937 1.857 1.942 1.892 1.932 2.042 2.112 2.132 2.172 2.102 2.170 2.110 2.160 2.310 2.330 2.390 2.510 2.610 2.615 2.615 2.635 2.715 2.615 2.615 2.595 2.535 2.501 2.451 2.691 2.841 2.831 2.891 2.861 2.891 2.893 2.983 2.933 2.913 2.923 2.933 3.023 2.943 2.959 2.739 2.599 2.639 2.659 2.699 2.909 4.869 4.645 4.705 4.775 4.875 4.905 3.025 3.235 3.145 3.091 3.141 3.121 3.031 3.041 3.131 3.211 3.331 3.414 3.464 3.534 3.444 3.334 2.924 2.464 2.454 2.441 2.301 2.231 2.211 2.341 2.441 2.541 2.741 2.879 2.919 2.929 2.749 1.999 1.889 1.869 1.919 1.846 1.796 1.636 1.516 1.276 1.326 1.296 1.496 1.922 1.522 1.622 1.622 1.632 1.662 1.432 1.512 1.578 1.618 1.598 1.558 1.528 1.428 1.318 1.348 1.374 1.504 1.584 1.614 1.534 1.654 1.904 1.584 2.266 2.116 1.626 1.536 1.686 1.836 2.036 2.066 1.645 1.555 1.465 1.575 1.575 1.645 1.655 1.655 1.689 1.829 1.729 1.799 1.769 1.619 1.699 1.749 1.824 1.854 1.954 1.894 1.904 2.004 2.084 2.144 2.142 2.172 2.212 2.432 2.732 2.712 2.652 2.672 2.667 2.587 2.677 2.677 2.677 2.557 2.337 2.337 2.257 2.267 2.307 2.357 2.367 2.367 2.137 2.107 2.115 2.045 2.045 2.025 2.025 1.995 2.005 1.995 2.073 2.113 2.073 2.063 1.993 1.923 1.893 1.873 1.846 1.896 1.906 1.866 1.916 1.956 2.076 2.026 2.045 2.055 2.125 2.005 2.065 2.145 2.065 2.095 2.292 2.282 2.272 2.392 2.282 2.302 2.402 2.462 2.452 2.432 2.372 2.352 2.322 2.272 2.222 2.232 2.330 2.390 2.380 2.360 2.380 2.390 2.450 2.670 2.709 2.699 2.639 2.699 2.749 2.619 2.619 2.619 2.686 2.646 2.586 2.656 2.546 2.216 2.556 2.676 2.653 2.573 2.573 2.583 2.273 2.303 2.273 2.243 2.385 2.465 2.425 2.495 2.505 2.485 2.535 2.515 2.465 2.405 2.395 2.285 2.145 2.125 2.195 2.155 2.226 2.316 2.226 2.226 2.126 2.046
2.675 2.635 2.585 2.555 2.695 2.605 2.675 2.735 2.783 2.733 2.733 2.813 2.753 2.773 2.573 2.553 2.723 2.753 2.743 2.783 2.673 2.773 2.793 2.713 2.591 2.581 2.591 2.571 2.481 2.451 2.531 2.541 2.424 2.494 2.514 2.524 2.494 2.494 2.344 2.364 2.395 2.465 2.435 2.375 2.375 2.355 2.285 2.255 2.438 2.548 2.488 2.538 2.608 2.588 2.608 2.608 2.610 2.660 2.620 2.540 2.550 2.590 2.650 2.730 2.759 2.749 2.589 2.549 2.379 2.499 2.479 2.459 2.509 2.849 2.939 2.939 2.849 2.929 2.899 2.899 2.843 2.763 2.713 2.553 2.383 2.413 2.483 2.573 2.428 2.358 2.458 2.468 2.438 2.458 2.398 2.358 2.339 2.419 2.409 2.359 2.429 2.329 2.299 2.259 2.413 2.453 2.483 2.373 2.423 2.423 2.383 2.463 2.415 2.455 2.295 2.235 2.205 2.115 2.225 2.275 2.326 2.566 2.396 2.346 2.456 2.446 2.426 2.746 2.868 2.838 2.758 2.718 2.698 2.628 2.578 2.658 2.598 2.598 2.608 2.718 2.568 2.628 2.748 2.648 2.572 2.592 2.762 2.432 2.442 2.562 2.522 2.482 2.383 2.303 2.193 2.223 2.293 2.383 2.323 2.413 2.408 2.398 2.308 2.248 2.158 2.128 2.118 2.278 2.027 2.127 1.987 2.017 2.027 1.967 2.017 1.977 2.022 1.912 1.912 2.032 2.052 2.092 2.072 2.032 2.120 2.140 2.370 2.310 2.270 2.340 2.510 2.660 2.585 2.615 2.625 2.635 2.635 2.745 2.625 2.455 2.471 2.451 2.591 2.621 2.771 2.831 2.861 2.891 2.863 2.953 2.973 2.973 2.973 3.083 3.133 3.083 3.089 2.759 2.639 2.649 2.649 2.729 2.849 4.479 4.625 4.785 4.805 4.855 4.925 3.205 3.185 3.145 3.081 3.151 3.131 3.051 2.941 3.121 3.141 3.341 3.384 3.464 3.584 3.484 3.484 3.114 2.564 2.544 2.541 2.351 2.211 2.221 2.331 2.451 2.501 2.721 2.929 2.959 2.949 2.789 2.049 1.839 1.889 1.869 1.816 1.786 1.686 1.536 1.346 1.366 1.316 1.326 1.472 1.442 1.472 1.442 1.442 1.412 1.422 1.532 1.618 1.638 1.638 1.618 1.468 1.448 1.378 1.368 1.384 1.514 1.604 1.664 1.634 1.654 1.614 2.004 2.316 2.276 1.546 1.516 1.586 1.726 1.956 2.026 1.965 1.565 1.475 1.495 1.565 1.625 1.645 1.645 1.709 1.839 1.779 1.719 1.749 1.789 1.709 1.829 1.884 1.974 1.994 1.924 1.954 2.024 2.134 2.164 2.162 2.242 2.422 2.732 2.772 2.692 2.712 2.692 2.617 2.607 2.667 2.707 2.717 2.627 2.327 2.267 2.247 2.287 2.317 2.357 2.347 2.277 2.317 2.317 2.285 1.985 1.965 1.975 2.035 1.975 1.965 1.985 2.023 2.013 1.973 1.973 1.913 1.803 1.783 1.783 1.796 1.886 1.846 1.856 1.936 1.986 2.136 2.166 2.215 2.205 2.385 2.255 2.115 2.135 2.165 2.205 2.242 2.382 2.252 2.292 2.262 2.392 2.452 2.522 2.502 2.422 2.432 2.352 2.332 2.312 2.262 2.372 2.380 2.440 2.440 2.400 2.360 2.340 2.440 2.540 2.749 2.569 2.599 2.489 2.539 2.609 2.569 2.589 2.606 2.706 2.616 2.626 2.486 2.256 2.186 2.466 2.473 2.603 2.593 2.433 2.413 2.443 2.483 2.503 2.475 2.505 2.535 2.585 2.555 2.435 2.505 2.465 2.525 2.495 2.395 2.465 2.295 2.155 2.125 2.145 2.296 2.276 2.226 2.246 2.156 2.006
2.615 2.655 2.615 2.825 2.915 2.955 2.835 2.715 2.753 2.883 2.893 2.763 2.723 2.793 2.603 2.543 2.613 2.723 2.733 2.813 2.673 2.753 2.893 2.733 2.721 2.701 2.771 2.611 2.481 2.471 2.561 2.441 2.454 2.484 2.514 2.444 2.394 2.384 2.304 2.284 2.435 2.445 2.475 2.505 2.385 2.365 2.315 2.285 2.438 2.538 2.508 2.508 2.628 2.638 2.598 2.648 2.620 2.730 2.660 2.570 2.560 2.580 2.590 2.610 2.629 2.599 2.499 2.449 2.509 2.509 2.449 2.429 2.499 2.659 2.989 2.959 2.929 2.929 2.919 2.929 2.913 2.823 2.813 2.573 2.423 2.423 2.443 2.513 2.408 2.378 2.438 2.388 2.428 2.288 2.358 2.498 2.319 2.379 2.399 2.449 2.469 2.319 2.269 2.229 2.283 2.543 2.453 2.423 2.443 2.463 2.473 2.563 2.435 2.415 2.315 2.335 2.255 2.165 2.115 2.175 2.296 2.536 2.506 2.366 2.466 2.676 2.546 2.776 2.778 2.898 2.768 2.748 2.658 2.698 2.548 3.738 2.558 2.478 2.468 2.448 2.688 2.558 2.678 2.728 2.452 2.392 2.792 2.522 2.432 2.492 2.502 2.502 2.363 2.283 2.153 2.183 2.223 2.253 2.283 2.323 2.368 2.338 2.258 2.248 2.128 2.128 2.138 1.898 1.977 2.017 1.977 2.257 2.077 2.087 2.087 2.117 2.002 1.922 1.892 1.952 2.112 2.032 2.062 1.982 2.020 2.220 2.320 2.310 2.170 2.170 2.450 2.670 2.695 2.785 2.905 2.895 2.865 3.005 2.675 2.465 2.441 2.421 2.491 2.691 2.761 2.831 2.841 2.841 2.983 3.043 3.043 3.073 2.973 3.053 3.043 3.033 2.939 2.809 2.769 2.649 2.659 2.709 2.909 3.289 3.115 4.555 3.485 3.135 2.995 2.995 3.135 3.155 3.061 3.151 3.141 3.071 3.001 3.081 3.151 3.321 3.354 3.444 3.524 3.494 3.484 3.184 2.684 2.494 2.401 2.241 2.221 2.261 2.281 2.331 2.501 2.691 2.909 2.949 2.949 2.859 2.349 1.869 1.889 1.859 1.776 1.766 1.696 1.566 1.436 1.296 1.336 1.256 1.382 1.412 1.382 1.412 1.432 1.452 1.492 1.502 1.688 1.528 1.618 1.608 1.558 1.468 1.428 1.408 1.414 1.484 1.584 1.584 1.654 1.624 1.574 1.814 1.986 2.196 1.596 1.486 1.566 1.646 1.766 2.056 1.975 1.915 1.565 1.425 1.485 1.635 1.635 1.675 1.719 1.709 1.699 1.719 1.819 1.899 1.879 1.829 1.944 1.984 2.014 2.034 2.074 2.034 2.094 2.124 2.282 2.502 2.682 2.692 2.712 2.742 2.722 2.652 2.627 2.607 2.667 2.747 2.647 2.457 2.347 2.247 2.227 2.237 2.347 2.287 2.307 2.277 2.387 2.357 2.335 2.185 1.935 1.945 1.945 1.965 1.955 1.975 1.993 1.983 1.933 1.813 1.873 1.793 1.753 1.733 1.736 1.796 1.806 1.836 1.966 2.036 2.066 2.176 2.295 2.395 2.425 2.485 2.195 2.185 2.275 2.185 2.262 2.262 2.282 2.302 2.432 2.572 2.682 2.762 2.632 2.482 2.462 2.402 2.442 2.432 2.422 2.442 2.450 2.490 2.450 2.390 2.380 2.330 2.350 2.400 2.529 2.449 2.459 2.539 2.509 2.499 2.439 2.469 2.536 2.556 2.576 2.626 2.516 2.366 2.396 2.506 2.613 2.643 2.653 2.543 2.513 2.473 2.483 2.423 2.445 2.465 2.515 2.555 2.445 2.385 2.395 2.365 2.285 2.435 2.405 2.405 2.375 2.255 2.195 2.375 2.306 2.286 2.266 2.236 2.116 2.106
2.671 2.701 2.671 2.711 2.851 3.001 2.981 2.661 2.966 2.826 2.936 2.906 2.716 2.816 2.706 2.606 2.606 2.676 2.676 2.736 2.666 2.746 2.726 2.746 2.674 2.724 2.654 2.614 2.494 2.504 2.484 2.504 2.470 2.460 2.490 2.490 2.440 2.450 2.270 2.240 2.381 2.431 2.491 2.531 2.411 2.401 2.311 2.311 2.419 2.529 2.509 2.549 2.589 2.579 2.599 2.609 2.622 2.692 2.642 2.622 2.602 2.582 2.582 2.602 2.563 2.513 2.463 2.553 2.553 2.543 2.473 2.463 2.464 2.634 3.014 2.944 3.014 2.954 2.894 2.984 3.029 3.049 2.809 2.649 2.469 2.469 2.439 2.489 2.493 2.433 2.353 2.393 2.433 2.373 2.343 2.363 2.235 2.295 2.365 2.325 2.405 2.195 2.295 2.255 2.281 2.621 2.611 2.511 2.411 2.461 2.461 2.481 2.465 2.435 2.415 2.345 2.375 2.195 2.155 2.135 2.431 2.481 2.431 2.421 2.811 2.561 2.691 2.731 2.702 2.772 2.742 2.782 2.762 2.562 2.512 2.602 2.466 2.476 2.266 2.626 2.556 2.616 2.716 2.566 2.561 2.481 2.461 2.481 2.491 2.481 2.431 2.451 2.343 2.243 2.123 2.163 2.143 2.223 2.243 2.273 2.247 2.277 2.067 1.997 1.907 1.877 1.887 1.747 1.793 1.963 2.013 2.073 2.053 2.083 2.113 2.073 2.006 1.966 1.886 1.926 2.016 2.026 1.996 1.996 1.993 2.023 2.103 2.043 2.173 2.183 2.493 2.493 2.784 2.804 2.884 2.884 2.864 3.004 2.704 2.524 2.451 2.421 2.441 2.661 2.841 2.861 2.851 2.931 2.977 2.917 2.967 2.987 2.957 3.067 2.987 2.987 2.992 2.952 2.742 2.652 2.682 2.702 2.922 2.802 3.078 4.958 4.648 3.228 3.018 3.018 3.208 3.198 3.093 3.143 3.133 3.103 3.013 3.073 3.133 3.343 3.328 3.368 3.458 3.518 3.568 3.308 2.808 2.498 2.287 2.267 2.247 2.277 2.247 2.337 2.507 2.677 2.878 3.008 3.018 2.778 2.608 1.868 1.898 1.828 1.784 1.674 1.514 1.534 1.434 1.314 1.324 1.314 1.365 1.425 1.455 1.465 1.465 1.465 1.565 1.535 1.611 1.551 1.711 1.611 1.611 1.581 1.471 1.471 1.403 1.503 1.603 1.643 1.603 1.823 1.543 1.923 1.764 1.954 1.744 1.564 1.524 1.574 1.964 2.054 2.070 1.980 1.730 1.470 1.510 1.600 1.640 1.730 1.697 1.737 1.757 1.767 1.827 1.877 1.767 1.807 1.971 2.091 2.061 2.111 2.091 2.091 2.051 2.191 2.508 2.858 2.828 2.738 2.748 2.748 2.678 2.648 2.633 2.613 2.713 2.673 2.573 2.503 2.373 2.273 2.208 2.208 2.248 2.248 2.268 2.268 2.288 2.288 2.272 2.172 1.932 1.942 1.932 2.002 1.932 1.972 1.942 1.992 2.012 2.032 1.822 1.732 1.732 1.702 1.722 1.792 1.832 1.852 2.002 2.082 2.092 2.172 2.315 2.395 2.425 2.475 2.265 2.235 2.245 2.315 2.361 2.391 2.311 2.361 2.511 2.611 2.591 2.761 2.719 2.639 2.489 2.489 2.569 2.439 2.439 2.449 2.477 2.557 2.387 2.367 2.367 2.377 2.357 2.417 2.479 2.459 2.499 2.519 2.489 2.399 2.409 2.429 2.439 2.489 2.529 2.549 2.629 2.499 2.609 2.579 2.630 2.610 2.520 2.520 2.490 2.540 2.500 2.480 2.488 2.428 2.418 2.368 2.348 2.268 2.288 2.368 2.227 2.357 2.447 2.417 2.377 2.407 2.367 2.327 2.319 2.369 2.269 2.239 2.249 2.189
2.721 2.741 2.731 2.681 2.771 2.771 2.721 2.601 2.626 2.716 2.876 3.066 2.866 2.876 2.816 2.696 2.666 2.666 2.686 2.676 2.696 2.766 2.666 2.716 2.834 2.624 2.614 2.544 2.554 2.484 2.544 2.574 2.620 2.500 2.450 2.670 2.490 2.470 2.430 2.220 2.281 2.391 2.471 2.531 2.461 2.411 2.341 2.311 2.439 2.539 2.499 2.549 2.549 2.489 2.589 2.619 2.512 2.762 2.712 2.752 2.572 2.582 2.562 2.472 2.463 2.533 2.663 2.613 2.553 2.533 2.473 2.443 2.444 2.534 2.944 2.884 2.974 2.984 2.944 2.984 2.949 2.969 2.969 2.829 2.569 2.439 2.489 2.439 2.473 2.513 2.483 2.473 2.463 2.393 2.333 2.293 2.245 2.275 2.295 2.305 2.295 2.305 2.345 2.265 2.291 2.341 2.601 2.641 2.431 2.451 2.461 2.471 2.475 2.485 2.435 2.315 2.345 2.255 2.215 2.315 2.391 2.411 2.501 2.471 2.731 2.701 2.731 2.681 2.682 2.752 2.732 2.812 2.972 2.812 2.632 2.862 2.686 2.636 2.456 2.526 2.476 2.476 2.496 2.546 2.531 2.591 2.491 2.531 2.451 2.501 2.411 2.331 2.263 2.243 2.063 2.063 2.103 2.003 2.043 2.123 2.067 2.017 1.947 1.927 1.887 1.887 1.787 1.797 1.753 1.943 2.013 2.043 2.033 2.063 2.103 2.213 2.026 1.986 1.876 1.916 1.966 1.986 1.996 1.996 1.993 2.003 2.033 2.053 2.113 2.103 2.143 2.473 2.784 2.824 2.804 2.894 2.784 2.764 2.674 2.544 2.491 2.411 2.421 2.571 2.781 2.861 2.841 2.881 3.017 2.917 2.987 2.977 3.047 2.997 3.007 2.987 3.062 3.062 2.782 2.672 2.702 2.652 2.802 4.422 4.518 4.688 4.708 4.668 3.038 3.018 3.068 3.138 3.133 3.113 3.173 3.123 3.053 3.053 3.143 3.293 3.348 3.368 3.408 3.478 3.558 3.428 2.988 2.548 2.397 2.377 2.257 2.287 2.347 2.437 2.507 2.597 2.808 2.948 2.878 2.828 2.758 2.038 1.908 1.678 1.694 1.664 1.604 1.604 1.484 1.314 1.324 1.334 1.355 1.455 1.545 1.505 1.525 1.575 1.725 1.735 1.621 1.761 1.751 1.721 1.571 1.511 1.511 1.441 1.443 1.473 1.603 1.583 1.753 1.773 1.563 1.793 1.694 1.574 1.714 1.734 1.474 1.834 2.164 1.324 2.140 2.210 2.040 1.960 1.660 1.640 1.710 1.800 1.767 1.797 1.857 1.967 1.857 1.757 1.827 1.907 2.011 2.001 2.041 2.171 2.121 2.071 2.111 2.421 2.878 2.878 2.768 2.768 2.758 2.698 2.688 2.668 2.643 2.603 2.573 2.563 2.543 2.503 2.383 2.273 2.238 2.188 2.208 2.168 2.198 2.478 2.208 2.228 2.162 2.112 2.082 1.942 1.852 1.922 1.962 1.962 1.862 1.872 1.982 1.992 1.792 1.752 1.832 1.782 1.782 1.872 1.952 1.972 2.052 2.102 2.162 2.252 2.255 2.305 2.375 2.395 2.365 2.285 2.315 2.465 2.451 2.311 2.331 2.331 2.451 2.651 2.771 2.721 2.549 2.589 2.579 2.429 2.469 2.319 2.369 2.349 2.527 2.477 2.427 2.277 2.357 2.367 2.407 2.547 2.549 2.579 2.519 2.449 2.369 2.349 2.339 2.359 2.389 2.469 2.479 2.509 2.539 2.609 2.639 2.629 2.570 2.530 2.480 2.500 2.630 2.780 2.730 2.470 2.428 2.318 2.378 2.378 2.278 2.238 2.218 2.228 2.257 2.257 2.347 2.447 2.387 2.327 2.347 2.287 2.289 2.289 2.339 2.419 2.359 2.289
2.751 2.751 2.741 2.691 2.681 2.641 2.641 2.621 2.616 2.746 2.766 2.986 2.966 2.876 2.806 2.746 2.766 2.676 2.686 2.686 2.776 2.766 2.696 2.646 2.814 2.554 2.554 2.534 2.534 2.534 2.564 2.714 2.750 2.530 2.360 2.550 2.610 2.400 2.330 2.310 2.231 2.481 2.411 2.421 2.431 2.391 2.361 2.381 2.409 2.549 2.509 2.549 2.519 2.499 2.539 2.509 2.582 2.712 2.702 2.612 2.542 2.552 2.482 2.352 2.553 2.643 2.613 2.613 2.583 2.543 2.483 2.493 2.504 2.584 2.764 2.894 2.924 3.004 3.034 2.934 2.969 2.999 2.889 2.829 2.629 2.479 2.479 2.439 2.423 2.413 2.443 2.443 2.433 2.363 2.323 2.303 2.225 2.275 2.345 2.315 2.235 2.345 2.395 2.425 2.261 2.361 2.591 2.641 2.421 2.551 2.441 2.471 2.495 2.485 2.385 2.295 2.335 2.305 2.345 2.275 2.431 2.441 2.471 2.551 2.671 2.681 2.781 2.811 2.942 2.822 2.802 2.712 2.822 2.782 2.742 2.602 2.536 2.456 2.486 2.466 2.586 2.556 2.556 2.596 2.531 2.581 2.541 2.501 2.471 2.421 2.361 2.311 2.233 2.113 2.033 2.003 2.013 2.023 2.043 2.043 2.107 1.997 1.987 1.847 1.847 1.877 1.847 1.737 1.713 1.893 1.993 2.043 2.003 2.043 2.033 1.983 1.926 1.916 1.876 1.906 1.976 2.026 2.086 2.136 2.133 2.123 2.153 2.173 2.223 2.283 2.233 2.563 2.814 2.794 2.744 2.774 2.804 2.764 2.604 2.534 2.411 2.401 2.361 2.561 2.591 2.781 2.781 2.831 2.867 2.907 3.117 3.107 3.177 3.067 3.117 3.117 3.132 3.102 2.842 2.692 2.712 2.682 2.722 2.992 4.928 4.668 4.688 4.698 3.038 3.038 3.028 3.078 3.133 3.103 3.173 3.153 3.063 2.993 3.123 3.263 3.418 3.408 3.468 3.548 3.618 3.438 3.128 2.558 2.397 2.387 2.247 2.307 2.287 2.447 2.497 2.577 2.818 2.968 2.908 2.888 2.808 2.468 1.828 1.718 1.654 1.624 1.674 1.624 1.514 1.354 1.334 1.354 1.365 1.515 1.715 1.615 1.585 1.595 1.735 1.665 1.531 1.681 1.771 1.681 1.641 1.591 1.481 1.431 1.433 1.423 1.563 1.723 1.733 1.683 1.623 1.903 1.774 1.604 1.714 1.834 1.714 1.674 2.084 0.924 1.340 2.230 2.130 2.030 1.890 1.650 1.750 1.810 1.847 1.857 1.857 1.917 2.077 1.997 1.967 2.017 2.011 2.061 2.121 2.311 2.121 2.151 2.481 2.901 2.878 2.788 2.798 2.768 2.718 2.788 2.788 2.738 2.633 2.563 2.523 2.473 2.483 2.423 2.303 2.243 2.238 2.168 2.188 2.168 2.098 2.188 2.228 2.138 2.092 2.032 1.952 1.932 1.912 2.002 2.082 2.042 1.802 1.822 1.912 1.982 2.022 1.912 1.932 1.942 1.952 1.962 2.032 2.042 2.152 2.192 2.222 2.242 2.305 2.325 2.425 2.395 2.405 2.425 2.485 2.525 2.461 2.391 2.341 2.381 2.441 2.771 2.691 2.681 2.469 2.419 2.479 2.409 2.349 2.329 2.429 2.479 2.497 2.457 2.267 2.237 2.257 2.317 2.277 2.407 2.529 2.489 2.469 2.409 2.389 2.349 2.379 2.419 2.449 2.459 2.489 2.479 2.509 2.519 2.539 2.529 2.540 2.500 2.450 2.530 2.510 2.740 2.640 2.660 2.438 2.298 2.388 2.378 2.478 2.368 2.208 2.188 2.227 2.247 2.357 2.347 2.337 2.317 2.297 2.257 2.249 2.349 2.379 2.359 2.389 2.409
2.851 2.841 2.811 2.811 2.821 2.821 2.851 2.831 2.826 2.806 2.726 2.816 2.806 2.886 2.856 2.786 2.726 2.716 2.766 2.666 2.666 2.546 2.546 2.586 2.554 2.524 2.694 2.554 2.494 2.524 2.614 2.634 2.850 2.490 2.330 2.570 2.690 2.700 2.750 2.270 2.231 2.271 2.341 2.361 2.361 2.371 2.341 2.321 2.329 2.509 2.499 2.549 2.559 2.479 2.559 2.659 2.512 2.552 2.652 2.572 2.522 2.412 2.402 2.532 2.553 2.563 2.533 2.513 2.533 2.573 2.543 2.583 2.614 2.554 2.704 3.044 3.024 2.964 2.924 2.914 2.969 3.099 3.169 2.949 2.649 2.449 2.489 2.509 2.423 2.403 2.403 2.413 2.303 2.273 2.283 2.353 2.285 2.245 2.275 2.425 2.435 2.445 2.415 2.565 2.401 2.281 2.421 2.341 2.411 2.431 2.481 2.561 2.515 2.515 2.425 2.355 2.435 2.475 2.375 2.315 2.471 2.371 2.651 2.601 2.621 2.941 2.981 2.831 2.852 2.792 2.912 3.492 2.742 2.732 2.702 2.672 2.736 2.596 2.576 2.536 2.656 2.586 2.636 2.626 2.641 2.641 2.591 2.551 2.511 2.411 2.391 2.341 2.243 2.043 1.993 1.993 2.073 2.053 2.083 2.083 2.067 1.977 1.947 1.877 1.857 1.857 1.867 1.757 1.653 1.893 2.013 2.033 2.033 1.943 2.013 1.863 1.926 1.916 1.826 1.916 1.926 2.046 2.126 2.126 2.093 2.123 2.203 2.413 2.513 2.413 2.253 2.443 2.864 2.804 2.754 2.834 2.824 2.764 2.654 2.594 2.451 2.351 2.351 2.451 2.581 2.681 2.851 2.931 2.957 2.867 3.017 3.167 3.207 3.037 3.157 3.157 3.162 3.152 2.962 2.722 2.712 2.752 2.712 3.892 4.498 4.628 4.638 4.598 3.028 3.038 3.168 3.178 3.153 3.093 3.183 3.173 3.103 3.023 3.133 3.223 3.388 3.408 3.468 3.538 3.618 3.578 3.288 2.738 2.487 2.427 2.267 2.327 2.337 2.367 2.397 2.557 2.738 2.888 2.918 2.938 2.878 2.428 1.688 1.608 1.614 1.584 1.584 1.614 1.484 1.414 1.344 1.394 1.365 1.555 1.755 1.715 1.695 1.665 1.625 1.685 1.641 1.621 1.711 1.631 1.501 1.621 1.521 1.451 1.413 1.453 1.523 1.773 1.643 1.703 1.623 1.803 1.924 1.654 1.694 1.914 2.034 1.734 1.774 2.134 1.420 2.160 2.170 2.060 1.980 2.020 1.920 1.870 1.827 1.857 1.847 1.917 1.967 2.057 2.007 2.047 2.091 2.031 2.081 2.111 2.221 2.621 2.891 2.891 2.818 2.818 2.778 2.728 2.738 2.788 2.798 2.828 2.633 2.543 2.503 2.493 2.433 2.343 2.273 2.233 2.198 2.248 2.138 2.198 2.148 2.158 2.128 2.188 2.012 2.002 1.942 1.992 2.062 2.202 2.162 2.002 1.852 1.812 1.782 1.952 2.022 1.952 2.012 2.032 2.102 2.052 2.042 2.062 2.212 2.312 2.272 2.252 2.385 2.395 2.395 2.445 2.465 2.605 2.615 2.635 2.641 2.391 2.401 2.411 2.471 2.771 2.731 2.621 2.479 2.429 2.389 2.289 2.309 2.269 2.299 2.489 2.587 2.377 2.357 2.337 2.257 2.267 2.357 2.387 2.379 2.419 2.449 2.589 2.629 2.449 2.469 2.389 2.439 2.459 2.449 2.439 2.549 2.489 2.509 2.509 2.480 2.610 2.550 2.510 2.540 2.490 2.620 2.580 2.528 2.468 2.468 2.388 2.408 2.348 2.398 2.308 2.267 2.267 2.387 2.317 2.367 2.307 2.217 2.247 2.319 2.389 2.429 2.389 2.389 2.289
2.801 2.821 2.841 2.841 2.871 2.851 3.061 2.941 2.896 2.586 2.616 2.846 2.996 2.886 2.886 2.846 2.726 2.716 2.786 2.756 2.676 2.546 2.546 2.606 2.574 2.524 2.654 2.434 2.444 2.434 2.604 2.504 2.420 2.440 2.350 2.450 2.460 2.320 2.350 2.290 2.271 2.251 2.271 2.321 2.391 2.361 2.321 2.331 2.289 2.489 2.519 2.559 2.639 2.439 2.489 2.489 2.452 2.532 2.562 2.452 2.392 2.462 2.572 2.582 2.553 2.463 2.473 2.493 2.493 2.473 2.513 2.563 2.524 2.674 2.654 3.104 3.024 2.964 2.964 3.004 2.999 3.049 3.009 2.949 2.739 2.489 2.499 2.509 2.463 2.343 2.303 2.333 2.293 2.313 2.373 2.353 2.325 2.285 2.285 2.395 2.425 2.435 2.385 2.335 2.321 2.351 2.311 2.391 2.551 2.511 2.601 2.641 2.575 2.555 2.475 2.345 2.355 2.325 2.355 2.295 2.331 2.491 2.611 2.781 2.751 2.881 2.881 2.941 2.622 2.532 2.542 2.742 2.682 2.772 2.802 2.722 2.746 2.676 2.576 2.536 2.626 2.556 2.556 2.566 2.591 2.601 2.611 2.551 2.481 2.391 2.361 2.321 2.183 2.003 1.973 1.973 1.913 2.013 2.033 2.063 2.167 2.007 1.817 1.807 1.787 1.787 1.777 1.757 1.733 2.003 1.943 1.943 1.943 1.873 1.823 1.783 1.806 1.796 1.826 1.896 1.866 2.046 2.206 2.106 2.163 2.193 2.233 2.503 2.713 2.523 2.563 2.623 2.864 2.864 2.854 2.864 2.844 2.814 2.784 2.814 2.481 2.381 2.381 2.441 2.591 2.661 2.971 2.901 2.907 2.947 2.937 3.007 3.217 3.097 3.157 3.087 3.062 3.092 2.902 2.782 2.722 2.742 2.732 2.842 3.118 3.698 3.248 3.168 3.108 3.188 3.218 3.228 3.163 3.113 3.183 3.183 3.133 3.063 3.133 3.213 3.398 3.408 3.448 3.458 3.588 3.578 3.338 2.858 2.557 2.447 2.347 2.387 2.437 2.377 2.457 2.607 2.688 2.918 3.058 3.058 3.058 2.508 1.688 1.768 1.554 1.534 1.594 1.504 1.454 1.484 1.354 1.414 1.355 1.385 1.395 1.615 1.595 1.705 1.535 1.675 1.571 1.651 1.611 1.521 1.531 1.461 1.521 1.511 1.463 1.443 1.533 1.673 1.733 1.813 1.753 1.633 2.664 1.834 1.744 1.784 1.634 1.874 1.754 2.034 2.160 2.150 2.160 2.110 2.060 2.080 2.180 2.070 1.887 1.827 1.827 1.927 1.987 2.027 2.047 2.097 2.171 2.181 2.171 2.301 2.691 2.811 2.861 2.841 2.848 2.808 2.738 2.738 2.738 2.748 2.828 2.768 2.643 2.553 2.503 2.443 2.383 2.303 2.253 2.193 2.178 2.168 2.228 2.168 2.148 2.138 2.108 2.018 1.972 2.012 2.102 2.092 2.152 2.202 2.162 2.062 1.862 1.972 1.842 1.942 1.962 1.992 2.092 2.132 2.122 2.152 2.172 2.202 2.252 2.572 2.312 2.302 2.375 2.455 2.565 2.605 2.635 2.675 2.655 2.675 2.621 2.431 2.431 2.431 2.441 2.681 2.491 2.461 2.379 2.349 2.389 2.229 2.189 2.249 2.339 2.539 2.577 2.437 2.367 2.357 2.307 2.357 2.397 2.417 2.399 2.519 2.609 2.619 2.549 2.499 2.429 2.409 2.419 2.429 2.379 2.489 2.559 2.529 2.489 2.519 2.520 2.630 2.550 2.550 2.460 2.530 2.620 2.720 2.488 2.458 2.428 2.388 2.368 2.388 2.398 2.288 2.367 2.367 2.317 2.357 2.277 2.227 2.217 2.187 2.409 2.389 2.379 2.279 2.299 2.269
2.911 2.841 2.861 2.861 2.871 2.841 2.901 2.961 3.026 2.636 2.616 2.666 2.946 2.906 2.886 2.776 2.716 2.706 2.776 2.756 2.686 2.566 2.566 2.536 2.514 2.474 2.474 2.484 2.634 2.414 2.414 2.404 2.340 2.370 2.370 2.300 2.310 2.310 2.360 2.370 2.341 2.421 2.371 2.381 2.461 2.401 2.361 2.311 2.289 2.419 2.529 2.429 2.449 2.339 2.479 2.559 2.372 2.312 2.332 2.362 2.522 2.522 2.442 2.522 2.393 2.403 2.463 2.453 2.423 2.433 2.463 2.483 2.484 2.634 2.864 2.894 3.044 2.994 3.014 2.984 3.009 3.019 2.969 2.929 2.819 2.539 2.499 2.499 2.503 2.403 2.413 2.433 2.463 2.453 2.453 2.373 2.375 2.285 2.335 2.365 2.385 2.325 2.365 2.335 2.451 2.371 2.521 2.581 2.501 2.491 2.581 2.631 2.755 2.585 2.515 2.355 2.355 2.335 2.305 2.345 2.451 2.651 2.801 2.681 2.691 2.971 2.521 2.471 2.512 2.442 2.492 2.482 2.792 2.762 2.792 2.812 2.706 2.626 2.916 2.516 2.506 2.526 2.526 2.546 2.531 2.551 2.571 2.481 2.411 2.391 2.311 2.301 2.073 1.933 1.943 1.943 1.913 1.963 2.033 2.023 1.907 1.867 1.767 1.737 1.847 1.807 1.717 1.797 1.733 1.873 1.883 1.973 1.873 1.863 1.773 1.753 1.756 1.746 1.846 1.846 1.826 1.966 2.026 2.036 2.203 2.153 2.273 2.573 2.703 2.473 2.453 2.393 2.704 2.944 2.904 2.974 2.844 2.824 2.774 2.664 2.451 2.381 2.381 2.431 2.551 2.711 2.791 2.841 2.767 2.797 2.867 3.037 3.127 3.077 3.107 3.147 3.192 3.012 2.972 2.802 2.772 2.742 2.712 2.832 2.938 3.178 3.278 3.178 3.138 3.198 3.228 3.208 3.233 3.183 3.213 3.233 3.173 3.103 3.143 3.223 3.348 3.408 3.468 3.548 3.608 3.578 3.328 2.918 2.627 2.587 2.537 2.407 2.487 2.507 2.617 2.647 2.688 2.908 2.968 2.968 2.968 2.788 1.868 1.758 1.524 1.654 1.594 1.574 1.554 1.474 1.344 1.414 1.385 1.405 1.395 1.625 1.505 1.505 1.525 1.625 1.661 1.651 2.611 1.521 1.521 1.601 1.551 1.541 1.463 1.453 1.513 1.613 1.673 1.893 1.853 1.833 2.774 2.754 2.034 1.834 1.854 2.034 2.044 1.974 2.080 2.110 2.120 2.140 2.130 2.200 2.160 2.160 1.957 1.867 1.867 1.897 2.037 2.117 2.207 2.167 2.191 2.241 2.391 2.821 2.991 2.901 2.861 2.871 2.828 2.748 2.748 2.748 2.748 2.728 2.718 2.668 2.633 2.553 2.493 2.423 2.343 2.233 2.203 2.173 2.148 2.198 2.138 2.198 2.148 2.058 2.008 2.008 2.072 2.132 2.182 2.232 2.162 2.032 2.092 1.932 1.962 1.972 1.972 1.952 1.992 1.872 2.182 2.092 2.112 2.162 2.202 2.272 2.282 2.452 2.302 2.322 2.305 2.445 2.515 2.615 2.655 2.685 2.545 2.515 2.511 2.551 2.471 2.441 2.421 2.291 2.281 2.321 2.359 2.349 2.399 2.279 2.219 2.289 2.359 2.469 2.427 2.397 2.337 2.327 2.307 2.307 2.277 2.357 2.249 2.209 2.429 2.639 2.559 2.509 2.439 2.339 2.319 2.359 2.399 2.479 2.499 2.369 2.459 2.479 2.500 2.530 2.560 2.490 2.510 2.500 2.520 2.530 2.558 2.498 2.418 2.488 2.468 2.368 2.348 2.468 2.477 2.457 2.327 2.257 2.207 2.197 2.167 2.177 2.239 2.319 2.269 2.229 2.179 2.259
2.951 2.921 2.901 2.901 2.911 2.951 3.081 3.141 3.096 2.676 2.886 2.726 2.946 2.836 2.866 2.726 2.716 2.656 2.746 2.706 2.606 2.576 2.546 2.506 2.494 2.494 2.494 2.584 2.434 2.394 2.404 2.414 2.420 2.390 2.530 2.530 2.640 2.590 2.510 2.430 2.401 2.421 2.421 2.391 2.391 2.461 2.421 2.361 2.339 2.389 2.509 2.359 2.289 2.169 2.239 2.279 2.262 2.292 2.342 2.462 2.442 2.472 2.432 2.362 2.403 2.343 2.383 2.433 2.393 2.443 2.453 2.593 2.534 2.614 2.834 2.844 3.064 3.064 3.054 3.044 3.009 3.009 3.069 3.029 2.859 2.579 2.499 2.519 2.543 2.483 2.393 2.483 2.453 2.473 2.503 2.343 2.355 2.365 2.395 2.395 2.305 2.295 2.375 2.335 2.391 2.361 2.531 2.381 2.341 2.511 2.601 2.681 2.665 2.585 2.475 2.485 2.435 2.425 2.455 2.665 2.501 2.741 2.561 2.721 2.631 2.451 2.371 2.471 2.552 2.462 2.512 2.502 2.742 2.772 2.752 2.752 2.646 2.536 2.536 2.406 2.476 2.496 2.506 2.536 2.481 2.511 2.521 2.441 2.401 2.341 2.241 2.111 2.023 1.903 1.943 1.933 1.873 1.873 1.893 1.933 1.797 1.937 1.597 1.567 1.617 1.567 1.717 1.717 2.083 1.873 1.913 1.813 1.853 1.853 1.823 1.723 1.696 1.736 1.716 1.836 1.836 1.976 2.016 2.176 2.273 2.323 2.393 2.543 2.563 2.593 2.403 2.353 2.634 2.844 2.854 2.824 2.894 2.864 2.884 2.684 2.481 2.401 2.401 2.381 2.531 2.691 2.731 2.771 2.847 2.917 2.947 3.027 3.087 3.137 3.167 3.227 3.222 3.072 2.962 2.822 2.722 2.772 2.742 2.842 2.958 3.138 3.258 3.198 3.148 3.318 3.288 3.318 3.233 3.273 3.223 3.233 3.213 3.123 3.063 3.203 3.288 3.498 3.418 3.478 3.568 3.598 3.418 3.098 2.647 2.487 2.357 2.387 2.487 2.437 2.577 2.637 2.668 2.918 3.048 3.038 3.088 2.848 1.848 1.738 1.614 1.724 1.554 1.594 1.674 1.504 1.384 1.424 1.455 1.405 1.395 1.475 1.585 1.605 1.565 1.645 1.551 1.621 3.541 3.111 1.661 3.451 1.651 1.581 1.473 1.483 1.503 1.593 1.703 1.863 1.783 1.703 1.994 2.674 2.604 1.924 2.054 2.124 2.184 2.084 2.070 2.060 2.070 2.130 2.150 2.220 2.450 2.190 2.217 2.107 1.977 1.957 2.067 2.117 2.157 2.217 2.251 2.381 2.721 2.991 2.991 2.921 2.921 2.861 2.788 2.798 2.798 2.768 2.748 2.718 2.678 2.628 2.573 2.503 2.453 2.503 2.533 2.313 2.203 2.203 2.168 2.238 2.138 2.138 2.148 2.098 2.008 2.028 2.092 1.972 2.102 2.132 1.842 1.812 1.872 1.962 2.072 2.062 2.022 2.032 2.052 2.042 2.382 2.132 2.162 2.192 2.242 2.312 2.322 2.462 2.362 2.382 2.365 2.335 2.525 2.645 2.555 2.615 2.645 2.585 2.581 2.571 2.501 2.441 2.421 2.311 2.311 2.331 2.329 2.359 2.359 2.329 2.319 2.349 2.369 2.399 2.407 2.367 2.357 2.537 2.617 2.277 2.247 2.327 2.249 2.199 2.189 2.409 2.599 2.539 2.479 2.389 2.329 2.359 2.399 2.269 2.329 2.269 2.179 2.189 2.480 2.500 2.510 2.580 2.500 2.480 2.440 2.550 2.538 2.508 2.448 2.678 2.658 2.448 2.388 2.498 2.497 2.457 2.347 2.287 2.217 2.187 2.167 2.237 2.229 2.199 2.179 2.139 2.169 2.159
2.961 2.931 2.881 2.901 2.981 3.061 3.001 3.081 3.046 2.906 2.956 2.746 2.876 2.766 2.806 2.726 2.736 2.696 2.656 2.626 2.616 2.586 2.596 2.566 2.544 2.524 2.504 2.454 2.384 2.434 2.374 2.424 2.400 2.430 2.480 2.530 2.690 2.740 2.580 2.420 2.441 2.461 2.461 2.451 2.451 2.461 2.511 2.451 2.469 2.559 2.469 2.389 2.249 2.209 2.259 2.299 2.342 2.372 2.442 2.412 2.452 2.462 2.412 2.352 2.353 2.483 2.473 2.553 2.423 2.363 2.373 2.503 2.544 2.614 2.594 2.844 3.104 3.054 3.084 3.114 3.089 3.119 3.139 3.139 2.979 2.719 2.539 2.569 2.573 2.513 2.403 2.443 2.443 2.363 2.433 2.433 2.275 2.285 2.375 2.425 2.345 2.325 2.335 2.495 2.511 2.401 2.421 2.371 2.471 2.661 2.771 2.761 2.735 2.625 2.615 2.515 2.505 2.585 2.655 2.855 2.531 2.501 2.501 2.491 2.461 2.451 2.461 2.461 2.512 2.532 2.632 2.562 2.692 2.762 2.742 2.722 2.636 2.576 2.466 2.406 2.426 2.486 2.446 2.406 2.421 2.471 2.471 2.491 2.341 2.331 2.121 2.051 1.953 1.873 1.943 1.923 1.873 1.893 1.763 1.713 1.627 1.557 1.507 1.477 1.547 1.557 1.957 2.217 1.913 1.873 1.873 1.793 1.823 1.853 1.703 1.733 1.626 1.696 1.656 1.826 1.906 1.946 2.146 2.256 2.343 2.413 2.443 2.493 2.413 2.643 2.273 2.253 2.384 2.774 2.824 2.834 2.854 2.914 2.864 2.864 2.591 2.421 2.421 2.401 2.561 2.671 2.801 2.741 2.947 2.967 2.957 3.087 2.987 3.147 3.217 3.207 3.232 3.142 3.122 2.932 2.762 2.792 2.772 2.832 2.998 3.138 3.228 3.108 3.168 3.168 3.298 3.198 3.273 3.313 3.243 3.263 3.223 3.213 3.073 3.203 3.268 3.568 3.488 3.518 3.478 3.528 3.548 3.308 2.757 2.657 2.717 2.437 2.497 2.467 2.457 2.557 2.658 2.898 3.068 3.108 3.048 2.858 1.878 1.698 1.584 1.604 1.564 1.654 1.634 1.594 1.404 1.434 1.445 1.435 1.445 1.555 1.655 1.585 1.625 1.505 1.661 1.721 3.591 3.151 3.081 3.161 1.891 1.611 1.483 1.523 1.513 1.613 1.783 1.823 1.783 1.853 1.834 2.654 2.604 2.614 2.074 2.134 2.604 2.274 2.220 2.030 2.080 2.100 2.190 2.250 2.350 2.660 2.607 3.007 2.247 2.097 2.087 2.107 2.147 2.247 2.331 2.791 2.911 2.911 2.921 2.921 2.891 2.841 2.908 2.898 2.888 2.898 2.738 2.678 2.638 2.588 2.503 2.463 2.453 2.563 2.493 2.463 2.213 2.203 2.188 2.318 2.358 2.108 2.168 2.148 2.018 1.998 1.902 1.852 1.912 1.972 1.892 1.912 2.032 2.072 2.082 2.262 2.082 2.152 2.222 2.422 2.552 2.162 2.222 2.252 2.332 2.442 2.492 2.562 2.482 2.372 2.405 2.435 2.575 2.605 2.605 2.625 2.635 2.555 2.551 2.591 2.441 2.421 2.421 2.411 2.361 2.341 2.379 2.369 2.369 2.369 2.369 2.399 2.429 2.529 2.527 2.457 2.387 2.477 2.437 2.397 2.277 2.317 2.579 2.329 2.159 2.309 2.609 2.579 2.509 2.389 2.369 2.299 2.479 2.339 2.239 2.199 2.179 2.269 2.260 2.500 2.540 2.500 2.510 2.470 2.590 2.690 2.618 2.528 2.598 2.808 2.718 2.628 2.388 2.358 2.397 2.387 2.187 2.277 2.137 2.147 2.137 2.197 2.199 2.139 2.119 2.069 2.149 2.109
2.905 2.975 2.895 2.945 2.945 3.055 3.045 3.085 2.910 2.990 2.740 2.720 2.670 2.750 2.780 2.770 2.714 2.704 2.654 2.624 2.604 2.584 2.564 2.564 2.579 2.569 2.499 2.459 2.399 2.379 2.399 2.419 2.396 2.466 2.406 2.386 2.566 2.516 2.446 2.486 2.470 2.550 2.600 2.530 2.600 2.620 2.520 2.460 2.385 2.415 2.445 2.345 2.185 2.105 2.225 2.255 2.302 2.342 2.362 2.522 2.472 2.462 2.472 2.722 2.792 2.442 2.372 2.492 2.382 2.502 2.362 2.442 2.451 2.511 2.651 2.671 3.121 3.141 3.151 3.121 3.127 3.117 3.167 3.067 3.027 2.887 2.557 2.597 2.546 2.526 2.616 2.636 2.486 2.366 2.346 2.326 2.288 2.438 2.478 2.528 2.438 2.438 2.528 2.528 2.723 2.413 2.353 2.473 2.783 2.853 2.783 2.813 2.776 2.686 2.676 2.566 2.626 2.566 2.756 2.516 2.680 2.440 2.450 2.460 2.560 2.530 2.470 2.450 2.489 2.499 2.599 2.559 2.659 2.839 2.769 2.749 2.660 2.570 2.450 2.440 2.400 2.460 2.410 2.440 2.463 2.623 2.543 2.533 2.413 2.273 2.123 2.023 1.966 1.866 1.966 1.836 1.786 1.776 1.706 1.686 1.556 1.536 1.576 1.506 1.396 1.576 1.986 1.746 1.848 1.868 1.858 1.768 1.788 1.908 1.718 1.738 1.704 1.754 2.004 1.814 1.844 1.844 2.084 2.114 2.096 2.016 2.016 2.046 2.056 2.136 2.076 2.076 2.254 2.764 2.804 2.844 2.864 2.884 2.784 2.744 2.540 2.470 2.450 2.430 2.560 2.690 2.920 2.930 3.027 3.157 3.017 3.047 3.067 3.187 3.317 3.177 3.191 3.161 3.141 2.931 2.881 2.851 2.791 2.811 3.003 3.083 3.113 3.113 3.133 3.223 3.223 3.203 3.291 3.341 3.281 3.271 3.231 3.181 3.111 3.201 3.260 3.480 3.550 3.500 3.700 3.590 3.600 3.460 2.934 2.694 2.874 2.554 2.434 2.474 2.574 2.674 2.666 2.926 3.126 3.146 3.126 3.026 2.246 1.716 1.515 1.535 1.555 1.615 1.675 1.645 1.465 1.445 1.455 1.405 1.505 1.605 1.505 1.525 1.585 1.565 1.628 1.838 3.508 3.088 1.698 1.658 1.638 1.658 1.488 1.558 1.578 1.588 1.778 1.818 1.858 1.888 1.995 2.055 2.615 2.635 2.635 2.835 2.895 2.605 2.431 2.131 2.081 2.101 2.191 2.231 2.701 3.101 3.184 3.264 3.244 2.284 2.204 2.224 2.364 2.494 2.852 3.072 3.032 2.962 2.962 2.892 2.872 2.942 2.918 2.928 2.938 2.808 2.668 2.608 2.588 2.538 2.469 2.439 2.359 2.429 2.319 2.239 2.239 2.219 2.328 2.528 2.308 2.148 2.158 2.178 2.048 1.988 1.910 1.950 1.970 2.020 2.110 2.280 2.390 2.260 2.320 2.270 2.140 2.210 2.410 2.470 2.490 2.380 2.216 2.286 2.366 2.526 2.526 2.526 2.506 2.336 2.395 2.405 2.555 2.565 2.585 2.615 2.575 2.475 2.473 2.403 2.443 2.383 2.373 2.383 2.353 2.343 2.368 2.348 2.378 2.378 2.428 2.418 2.508 2.438 2.345 2.505 2.425 2.535 2.465 2.405 2.335 2.275 2.318 2.288 2.348 2.778 2.378 2.538 2.498 2.448 2.369 2.219 2.259 2.229 2.189 2.289 2.409 2.339 2.309 2.389 2.499 2.529 2.539 2.499 2.529 2.829 2.649 2.579 2.619 2.649 2.669 2.709 2.419 2.319 2.253 2.213 2.113 2.053 2.153 2.133 2.153 2.163 2.109 2.079 2.119 2.129 2.089 2.209
2.875 2.875 2.925 2.935 2.965 2.945 3.365 2.995 2.780 2.670 2.680 2.670 2.660 2.610 2.740 2.690 2.664 2.634 2.624 2.614 2.604 2.574 2.594 2.644 2.679 2.729 2.589 2.479 2.449 2.439 2.559 2.589 2.466 2.436 2.336 2.426 2.456 2.606 2.606 2.556 2.550 2.570 2.620 2.580 2.570 2.600 2.610 2.440 2.335 2.455 2.425 2.435 2.245 2.215 2.165 2.305 2.232 2.352 2.412 2.482 2.522 2.492 2.472 2.622 2.432 2.412 2.402 2.412 2.362 2.482 2.392 2.362 2.401 2.641 2.721 2.681 2.951 3.151 3.261 3.201 3.177 3.147 3.147 3.227 3.257 2.967 2.617 2.567 2.576 2.576 2.616 2.516 2.596 2.566 2.456 2.496 2.488 2.488 2.518 2.518 2.508 2.498 2.678 2.718 2.673 2.593 2.753 2.903 2.953 2.873 2.813 2.903 2.956 2.816 2.676 2.666 2.526 2.616 2.576 2.636 2.490 2.450 2.490 2.430 2.550 2.480 2.460 2.460 2.409 2.449 2.589 2.669 2.659 2.649 2.949 2.859 2.700 2.620 2.580 2.430 2.340 2.290 2.280 2.290 2.293 2.363 2.413 2.393 2.293 2.283 2.183 2.063 2.006 1.846 1.886 1.816 1.686 1.686 1.666 1.556 1.606 1.576 1.536 1.456 1.646 1.706 2.046 1.726 1.688 1.718 1.738 1.898 1.958 1.838 1.838 1.818 1.824 1.924 2.134 1.884 1.824 1.814 1.874 1.934 1.966 1.996 2.026 2.036 2.016 1.956 1.976 2.016 2.144 2.754 2.794 2.844 2.904 2.794 2.774 2.674 2.550 2.540 2.480 2.460 2.470 2.670 2.850 2.960 3.097 2.897 2.867 2.927 2.957 3.177 3.327 3.357 3.221 3.221 3.251 3.011 2.911 2.811 2.841 2.841 2.993 3.083 3.153 3.253 3.253 3.293 3.223 3.343 3.421 3.301 3.331 3.281 3.241 3.201 3.121 3.101 3.240 3.400 3.620 3.590 3.530 3.600 3.600 3.560 3.084 2.714 2.554 2.484 2.454 2.484 2.604 2.654 2.666 2.876 3.136 3.176 3.156 3.086 2.346 1.796 1.525 1.515 1.635 1.885 1.825 1.705 1.585 1.445 1.455 1.455 1.485 1.445 1.565 1.545 1.565 1.595 1.588 1.718 1.738 1.698 1.588 1.598 1.558 1.528 1.548 1.598 1.608 1.608 1.768 1.878 1.898 1.938 2.005 2.195 2.515 2.635 2.755 2.885 2.905 2.795 2.691 2.481 2.221 2.081 2.121 2.201 3.011 3.171 3.264 3.254 3.324 3.294 2.554 2.654 2.664 2.834 3.082 3.032 2.992 3.002 2.932 2.912 2.992 2.972 2.968 2.928 2.838 2.708 2.648 2.588 2.618 2.478 2.429 2.379 2.339 2.309 2.319 2.339 2.309 2.389 2.118 2.098 2.118 2.138 2.158 2.158 2.138 2.058 2.080 2.070 2.180 2.130 2.300 3.860 4.000 2.420 2.370 2.380 2.320 2.190 2.360 2.390 2.450 2.370 2.276 2.426 2.506 2.486 2.556 2.536 2.496 2.356 2.365 2.405 2.505 2.525 2.575 2.465 2.355 2.385 2.363 2.353 2.383 2.293 2.253 2.273 2.243 2.253 2.348 2.368 2.408 2.398 2.478 2.458 2.438 2.498 2.505 2.445 2.515 2.555 2.415 2.455 2.555 2.505 2.408 2.538 2.328 2.578 2.398 2.368 2.338 2.328 2.359 2.279 2.239 2.219 2.189 2.399 2.429 2.309 2.219 2.259 2.489 2.569 2.609 2.539 2.539 2.579 2.529 2.579 2.599 2.639 2.619 2.679 2.619 2.439 2.233 2.153 2.103 2.113 2.113 2.083 2.143 2.163 2.129 2.099 2.129 2.179 2.059 2.029
2.855 2.825 2.825 2.815 2.775 2.755 2.895 2.915 2.550 2.370 2.540 2.600 2.580 2.570 2.690 2.650 2.644 2.674 2.614 2.644 2.594 2.594 2.654 2.704 2.759 2.769 2.619 2.509 2.469 2.459 2.559 2.509 2.546 2.496 2.356 2.646 2.716 2.796 2.636 2.626 2.510 2.490 2.510 2.570 2.610 2.610 2.530 2.450 2.435 2.435 2.465 2.395 2.285 2.205 2.265 2.325 2.432 2.372 2.432 2.442 2.532 2.552 2.542 2.522 2.432 2.402 2.432 2.362 2.322 2.372 2.352 2.332 2.341 2.381 2.471 2.621 3.681 3.431 3.421 3.341 3.297 3.337 3.257 3.277 3.257 2.937 2.617 2.597 2.606 2.566 2.486 2.536 2.536 2.576 2.556 2.606 2.718 2.508 2.638 2.698 2.518 2.508 2.638 2.748 2.613 2.673 2.733 2.893 2.833 2.863 2.863 2.873 2.916 2.816 2.746 2.696 2.576 2.796 2.556 2.526 2.630 2.440 2.460 2.450 2.410 2.460 2.440 2.420 2.399 2.499 2.619 2.589 2.599 2.559 2.829 2.929 2.880 2.540 2.420 2.420 2.330 2.270 2.210 2.250 2.463 2.213 2.223 2.193 2.143 2.113 2.273 2.063 1.976 1.836 1.826 1.726 1.666 1.666 1.686 1.606 1.566 1.516 1.506 1.526 1.536 2.156 2.416 1.756 1.518 1.768 1.788 1.968 2.038 1.808 2.058 1.848 1.964 2.114 2.214 2.044 1.814 1.824 1.884 1.914 2.066 2.056 2.006 2.136 2.006 1.966 1.886 1.916 2.014 2.814 2.874 2.884 2.934 2.924 2.874 2.794 2.650 2.540 2.470 2.480 2.440 2.610 2.860 2.810 2.847 2.857 2.987 2.917 2.927 3.227 3.397 3.307 3.231 3.201 3.231 3.021 2.971 2.841 2.871 2.831 2.953 3.063 3.213 3.303 3.333 3.483 3.333 3.363 3.301 3.371 3.391 3.291 3.271 3.221 3.151 3.091 3.230 3.350 3.580 3.590 3.550 3.580 3.650 3.600 3.304 2.714 2.524 2.484 2.454 2.494 2.504 2.584 2.666 2.806 3.136 3.166 3.246 3.106 2.686 1.806 1.505 1.505 1.755 2.035 1.875 1.915 1.715 1.465 1.465 1.425 1.515 1.495 1.545 1.555 1.525 1.595 1.648 1.528 1.558 1.538 1.528 1.508 1.548 1.558 1.578 1.608 1.638 1.648 1.678 1.868 1.928 1.898 1.995 1.835 2.535 2.685 2.795 2.885 2.935 3.025 2.861 2.721 2.561 2.371 2.091 2.161 2.311 2.941 3.254 3.224 3.254 3.224 3.074 2.984 3.024 2.974 2.982 3.002 3.012 2.982 2.912 3.022 3.022 3.002 2.998 2.838 2.708 2.668 2.638 2.618 2.668 2.528 2.409 2.389 2.359 2.319 2.339 2.229 2.099 2.129 2.128 2.058 2.018 2.098 2.168 2.158 2.158 2.128 2.190 2.190 2.230 2.310 2.300 3.920 4.030 4.040 2.400 2.410 2.370 2.230 2.370 2.430 2.550 2.490 2.286 2.486 2.436 2.526 2.556 2.496 2.526 2.506 2.335 2.365 2.355 2.325 2.375 2.355 2.355 2.355 2.383 2.343 2.303 2.253 2.213 2.203 2.123 2.213 2.298 2.358 2.398 2.438 2.648 2.498 2.518 2.648 2.675 2.785 2.585 2.395 2.315 2.505 2.595 2.625 2.698 2.378 2.448 2.418 2.518 2.288 2.298 2.348 2.239 2.239 2.229 2.259 2.259 2.459 2.359 2.229 2.209 2.359 2.719 2.479 2.299 2.589 2.549 2.509 2.519 2.579 2.609 2.589 2.579 2.589 2.499 2.439 2.223 2.183 2.133 2.063 2.053 2.023 2.083 2.203 2.169 2.149 2.129 2.099 2.039 1.969
2.815 2.795 2.725 2.715 2.715 2.665 2.705 2.605 2.440 2.420 2.490 2.490 2.520 2.610 2.660 2.600 2.584 2.694 2.584 2.634 2.544 2.584 2.714 2.774 2.789 2.759 2.699 2.579 2.489 2.479 2.759 2.769 2.666 2.726 2.716 3.026 2.766 2.646 2.616 2.496 2.440 2.470 2.510 2.500 2.600 2.570 2.520 2.500 2.465 2.345 2.495 2.375 2.275 2.235 2.265 2.315 2.612 2.402 2.472 2.502 2.482 2.542 2.502 2.512 2.402 2.362 2.342 2.322 2.352 2.352 2.342 2.302 2.321 2.601 2.521 2.491 3.021 3.521 3.511 3.421 3.347 3.407 3.337 3.177 3.287 2.927 2.617 2.587 2.616 2.586 2.496 2.456 2.436 2.546 2.496 2.586 2.618 2.618 2.688 2.648 2.608 2.608 2.688 2.598 2.723 2.823 2.753 2.823 2.843 2.893 2.873 2.873 2.866 2.846 2.746 2.736 2.856 2.776 2.836 2.976 2.670 2.520 2.530 2.510 2.540 2.530 2.450 2.720 2.719 2.719 2.589 2.609 2.599 2.519 2.659 2.919 2.880 2.530 2.440 2.380 2.320 2.350 2.290 2.300 2.373 2.183 2.013 1.993 1.963 1.963 1.973 2.003 1.936 1.796 1.786 1.726 1.676 1.766 1.816 1.716 1.646 1.546 1.526 1.516 1.576 1.856 1.886 1.876 1.948 2.018 1.988 2.058 1.948 1.658 1.738 1.918 2.094 2.164 2.344 2.184 1.874 1.794 1.774 1.824 1.956 2.176 2.036 2.086 1.976 1.866 1.866 1.876 1.924 2.764 2.894 2.894 2.924 2.914 2.894 2.794 2.740 2.610 2.480 2.500 2.470 2.570 2.700 2.830 2.977 2.987 3.047 2.967 2.957 3.117 3.377 3.287 3.201 3.211 3.121 3.071 2.961 2.861 2.881 2.851 2.943 3.203 3.333 3.383 3.343 3.383 3.383 3.343 3.401 3.391 3.391 3.291 3.281 3.231 3.161 3.111 3.180 3.310 3.510 3.560 3.590 3.590 3.650 3.630 3.684 2.944 2.734 2.634 2.484 2.514 2.474 2.564 2.676 2.786 3.156 3.256 3.296 3.276 3.046 1.796 1.485 1.555 1.835 1.885 1.995 1.915 1.735 1.525 1.475 1.475 1.445 1.495 1.585 1.565 1.555 1.545 1.548 1.518 1.508 1.538 1.548 1.548 1.588 1.598 1.658 1.598 1.658 1.638 1.718 1.918 1.928 1.958 1.895 1.795 1.805 2.895 3.065 2.835 2.905 2.985 3.021 3.091 2.851 2.531 2.241 2.161 2.251 2.641 3.294 3.244 3.134 3.154 3.164 3.144 3.124 3.044 3.022 3.052 3.012 2.952 3.032 3.042 3.032 3.052 2.838 2.728 2.638 2.618 2.628 2.638 2.698 2.618 2.449 2.349 2.209 2.109 1.809 1.909 1.949 2.029 2.058 2.088 2.158 2.208 2.208 2.158 2.178 2.158 2.290 2.260 2.290 2.370 2.250 3.930 4.020 4.050 2.400 2.370 2.450 2.310 2.310 2.530 2.540 2.430 2.356 2.456 2.466 2.446 2.466 2.416 2.436 2.336 2.215 2.295 2.305 2.335 2.265 2.285 2.375 2.435 2.493 2.243 2.153 2.283 2.113 2.223 2.373 2.223 2.248 2.338 2.398 2.468 2.598 2.628 2.598 2.858 2.775 2.555 2.615 2.265 2.255 2.425 2.285 2.465 2.418 2.298 2.408 2.428 2.348 2.328 2.268 2.238 2.239 2.259 2.289 2.269 2.409 2.449 2.259 2.229 2.189 2.299 2.959 2.839 2.349 2.369 2.569 2.529 2.489 2.449 2.489 2.449 2.479 2.469 2.419 2.279 2.283 2.353 2.143 2.083 2.013 2.033 2.083 2.223 2.179 2.099 2.059 1.929 1.899 1.869
2.755 2.685 2.645 2.645 2.655 2.605 2.555 2.495 2.420 2.540 2.510 2.520 2.590 2.620 2.650 2.740 2.604 2.754 2.814 2.794 2.574 2.594 2.644 2.764 2.779 2.749 2.769 2.639 2.559 2.529 2.589 2.739 2.746 2.686 2.646 2.736 2.776 2.686 2.596 2.516 2.440 2.460 2.500 2.420 2.540 2.550 2.550 2.490 2.405 2.555 2.445 2.385 2.295 2.165 2.155 2.155 2.342 2.572 2.562 2.392 2.512 2.402 2.362 2.442 2.332 2.322 2.412 2.502 2.402 2.442 2.432 2.342 2.691 2.741 2.631 2.571 2.661 3.341 3.481 3.391 3.277 2.947 2.767 2.747 2.647 2.697 2.597 2.597 2.636 2.616 2.516 2.556 2.516 2.436 2.416 2.536 2.598 2.598 2.558 2.548 2.718 2.798 2.568 2.688 2.713 2.813 2.853 2.793 2.963 2.813 2.843 2.843 2.786 2.846 2.796 2.716 2.776 2.776 2.706 2.796 2.720 2.590 2.660 2.750 2.850 2.700 2.670 2.710 2.789 2.829 2.729 2.549 2.659 2.609 2.699 2.789 2.660 2.520 2.400 2.300 2.270 2.280 2.100 2.140 2.023 2.053 1.943 1.913 1.893 1.943 1.983 2.053 1.896 1.746 1.716 1.696 1.826 2.076 1.996 2.086 2.186 1.796 1.496 1.546 1.686 2.006 2.226 2.246 2.668 2.428 1.888 2.078 2.308 2.098 2.008 2.078 2.094 2.184 2.334 2.144 1.884 1.784 1.754 1.764 1.886 1.996 1.986 2.026 1.896 1.866 1.816 1.826 1.844 2.114 2.894 2.924 2.904 2.904 2.914 2.814 2.920 2.680 2.480 2.510 2.500 2.560 2.660 2.880 3.137 3.017 3.077 3.087 3.057 3.017 3.277 3.127 3.161 3.171 3.151 3.141 3.111 2.951 2.871 2.891 2.953 3.143 3.293 3.313 3.413 3.443 3.403 3.383 3.441 3.411 3.411 3.391 3.291 3.241 3.181 3.121 3.150 3.260 3.440 3.530 3.580 3.550 3.600 3.600 3.634 3.094 2.684 2.654 2.484 2.554 2.534 2.654 2.726 2.776 3.026 3.316 3.286 3.246 3.096 2.106 1.805 1.765 1.745 1.855 1.875 1.765 1.595 1.545 1.465 1.505 1.445 1.535 1.605 1.555 1.535 1.485 1.528 1.538 1.548 1.548 1.588 1.628 1.698 1.778 1.778 1.648 1.688 1.688 1.738 1.978 2.158 2.018 1.915 1.795 1.815 2.785 3.115 2.875 2.885 2.965 3.351 3.411 3.031 2.681 2.261 2.361 2.391 2.581 3.034 3.214 3.114 3.204 3.184 3.144 3.074 3.034 3.062 3.032 2.982 2.942 3.012 3.052 3.012 2.802 2.708 2.698 2.658 2.648 2.638 2.668 2.648 2.428 2.219 1.729 1.689 1.769 1.789 1.829 1.939 1.989 2.038 2.068 2.268 2.368 2.238 2.198 2.178 2.168 2.190 2.280 2.340 2.380 2.260 2.400 2.410 2.560 2.390 2.400 2.340 2.310 2.360 2.390 2.370 2.350 2.346 2.366 2.386 2.306 2.256 2.276 2.316 2.216 2.195 2.255 2.275 2.305 2.155 2.235 2.505 2.465 2.403 2.313 2.213 2.133 2.163 2.203 2.263 2.213 2.258 2.418 2.438 2.448 2.598 2.658 2.618 2.658 2.525 2.365 2.245 2.125 2.135 2.195 2.155 2.175 2.218 2.338 2.438 2.408 2.298 2.248 2.228 2.258 2.309 2.369 2.339 2.359 2.249 2.289 2.269 2.359 2.379 2.339 3.049 2.359 2.439 2.659 2.509 2.649 2.529 2.449 2.389 2.429 2.359 2.309 2.249 2.229 2.553 2.423 2.243 2.103 2.083 2.043 2.073 2.193 2.169 2.249 1.999 1.919 1.789 1.559
2.575 2.595 2.575 2.525 2.565 2.625 2.625 2.565 2.570 2.550 2.550 2.570 2.610 2.660 2.670 2.790 2.634 2.754 2.664 2.554 2.514 2.634 2.644 2.764 2.709 2.729 2.719 2.699 2.639 2.569 2.579 2.709 2.856 2.816 2.756 2.736 2.706 2.666 2.606 2.556 2.450 2.440 2.390 2.430 2.550 2.550 2.540 2.510 2.495 2.385 2.495 2.355 2.315 2.205 2.145 2.175 2.272 2.462 2.792 2.402 2.322 2.312 2.382 2.362 2.382 2.292 2.392 2.522 2.602 2.432 2.552 2.412 2.611 2.601 2.551 2.551 2.531 2.741 2.651 2.541 2.567 2.487 2.597 2.567 2.597 2.607 2.607 2.587 2.686 2.606 2.596 2.586 2.616 2.576 2.476 2.496 2.538 2.628 2.578 2.528 2.648 2.558 2.648 2.588 2.813 2.753 2.773 2.823 2.793 2.873 2.843 2.763 2.746 2.816 2.776 2.736 2.686 2.806 2.676 2.796 2.820 2.840 2.850 2.810 2.760 2.730 2.710 2.660 2.729 2.749 2.509 2.489 2.489 2.449 2.479 2.459 2.620 2.530 2.360 2.280 2.140 2.100 2.060 1.980 1.983 1.923 1.863 2.013 2.073 2.093 2.143 2.153 2.096 1.656 1.656 1.696 1.876 2.196 2.296 2.226 2.126 1.796 1.776 1.996 2.716 3.036 2.646 2.856 3.018 2.848 2.598 2.438 2.408 2.208 2.158 2.128 2.114 2.144 2.114 2.194 1.804 1.794 1.744 1.754 1.806 1.836 1.846 1.846 1.846 1.826 1.826 1.826 1.874 1.994 2.944 2.884 2.814 2.824 2.824 2.824 2.970 2.710 2.520 2.530 2.530 2.530 2.730 2.950 2.977 2.887 2.937 2.957 2.977 3.027 3.197 3.177 3.361 3.321 3.291 3.371 3.041 2.941 2.911 2.941 3.023 3.063 3.193 3.373 3.383 3.433 3.503 3.413 3.421 3.401 3.371 3.391 3.291 3.271 3.211 3.141 3.110 3.250 3.360 3.520 3.540 3.570 3.520 3.620 3.594 3.524 2.864 2.554 2.544 2.594 2.584 2.644 2.706 2.776 2.956 3.296 3.216 3.216 3.146 2.406 1.765 1.635 1.665 1.755 1.865 1.725 1.685 1.585 1.485 1.515 1.495 1.515 1.505 1.495 1.515 1.515 1.518 1.548 1.548 1.618 1.698 1.748 1.778 1.918 1.828 1.708 1.658 1.708 1.718 2.008 2.038 2.018 1.945 1.935 1.855 2.515 2.865 2.895 2.945 3.045 3.371 3.511 3.341 3.571 3.471 3.531 3.151 2.851 2.904 3.034 3.074 3.094 3.174 3.114 3.064 3.074 3.042 2.992 3.002 2.972 2.862 2.902 2.772 2.612 2.608 2.668 2.648 2.618 2.438 2.318 1.838 1.978 1.809 1.779 1.849 1.859 1.819 1.839 1.979 2.059 2.148 2.208 2.268 2.328 2.438 2.218 2.198 2.188 2.140 2.290 2.320 2.310 2.270 2.300 2.330 2.370 2.430 2.370 2.340 2.320 2.340 2.350 2.350 2.340 2.316 2.326 2.286 2.226 2.156 2.126 2.096 2.136 2.105 2.145 2.245 2.275 2.225 2.295 2.345 2.345 2.353 2.363 2.253 2.313 2.163 2.243 2.543 2.203 2.218 2.338 2.438 2.398 2.438 2.368 2.308 2.318 2.315 2.255 2.295 2.265 2.235 2.225 2.205 2.225 2.258 2.308 2.328 2.288 2.258 2.318 2.318 2.308 2.449 2.359 2.399 2.439 2.449 2.359 2.249 2.279 2.389 2.939 2.369 2.319 2.709 2.499 2.569 2.649 2.549 2.459 2.409 2.379 2.299 2.209 2.249 2.299 2.263 2.413 2.433 2.143 2.073 2.053 2.123 2.183 2.229 2.159 1.959 1.869 1.689 1.599
2.605 2.605 2.535 2.525 2.525 2.605 2.575 2.575 2.580 2.560 2.560 2.580 2.600 2.640 2.690 2.770 2.694 2.624 2.624 2.614 2.594 2.574 2.674 2.734 2.829 2.789 2.729 2.769 2.699 2.619 2.659 2.699 2.746 2.746 2.736 2.726 3.036 2.626 2.536 2.556 2.400 2.320 2.360 2.420 2.550 2.620 2.560 2.580 2.415 2.405 2.375 2.415 2.335 2.205 2.185 2.175 2.222 2.502 3.002 2.252 2.332 2.292 2.342 2.372 2.452 2.382 2.512 2.712 2.562 2.612 2.482 2.472 2.431 2.631 2.501 2.521 2.301 2.361 2.371 2.441 2.467 2.497 2.557 2.617 2.627 2.847 2.867 2.627 2.626 2.626 2.626 2.686 2.586 2.586 2.546 2.496 2.508 2.568 2.628 2.568 2.628 2.718 2.698 2.618 2.773 2.823 2.723 2.763 2.743 2.753 2.733 2.763 2.706 2.716 2.796 2.796 2.756 2.726 2.796 2.866 2.870 2.920 3.010 2.920 2.780 2.840 2.900 2.680 2.369 2.359 2.249 2.409 2.349 2.419 2.409 2.509 2.470 2.400 2.270 2.170 2.130 2.130 2.060 2.050 2.043 2.093 2.173 2.143 2.063 2.053 2.093 1.933 2.086 1.676 1.606 1.596 1.956 2.206 2.376 2.276 2.206 1.946 2.136 3.046 2.706 2.396 2.476 2.886 2.598 2.388 2.618 2.268 2.548 2.158 2.038 2.048 2.024 2.024 2.174 1.884 1.734 1.754 1.724 1.744 1.756 1.736 1.746 1.756 1.746 1.766 1.806 1.846 1.844 1.954 2.784 2.844 2.894 2.854 2.964 2.864 2.860 2.760 2.580 2.500 2.560 2.560 2.720 2.770 4.037 4.497 4.537 3.007 3.027 3.027 3.257 3.197 3.321 3.411 3.411 3.311 3.291 3.061 2.931 2.971 2.983 2.993 3.193 3.323 3.343 3.403 3.453 3.373 3.401 3.401 3.411 3.361 3.291 3.291 3.241 3.171 3.130 3.250 3.300 3.380 3.520 3.580 3.590 3.550 3.894 3.364 2.774 2.574 2.604 2.614 2.614 2.554 2.626 2.786 2.916 3.236 3.306 3.256 3.266 2.946 2.165 1.765 1.775 1.685 1.715 1.715 1.625 1.605 1.495 1.535 1.565 1.535 1.545 1.525 1.525 1.525 1.548 1.668 1.698 1.708 1.708 1.728 1.848 1.908 1.948 1.758 1.698 1.698 1.708 1.908 2.098 2.068 2.025 1.905 1.985 1.885 2.905 2.905 2.925 3.405 3.031 3.421 3.431 2.171 2.261 3.611 3.571 3.101 3.024 3.074 3.054 3.074 3.074 3.094 3.104 3.074 2.992 3.002 3.082 3.092 2.862 2.612 2.502 2.482 2.588 2.478 2.338 1.898 1.848 1.818 1.788 1.848 1.799 1.789 1.859 1.869 1.999 1.979 2.079 2.339 2.168 2.248 2.208 2.348 2.368 2.178 2.218 2.208 2.170 2.170 2.200 2.210 2.250 2.310 2.310 2.300 2.470 2.310 2.330 2.380 2.370 2.320 2.290 2.300 2.286 2.236 2.166 2.136 2.076 2.086 2.106 2.076 2.035 2.185 2.385 2.445 2.285 2.305 2.295 2.365 2.373 2.343 2.333 2.243 2.143 2.173 2.193 2.543 2.328 2.238 2.308 2.428 2.418 2.408 2.328 2.288 2.335 2.315 2.315 2.335 2.275 2.205 2.205 2.215 2.238 2.238 2.278 2.318 2.348 2.388 2.368 2.358 2.299 2.379 2.449 2.449 2.469 2.339 2.309 2.519 2.909 2.839 2.439 2.549 2.589 2.649 2.599 2.669 2.489 2.439 2.449 2.349 2.259 2.229 2.319 2.339 2.203 2.053 2.253 2.143 2.043 2.073 2.173 2.153 2.149 2.129 1.869 1.799 1.549 1.409
2.685 2.585 2.555 2.565 2.585 2.575 2.565 2.545 2.530 2.530 2.560 2.620 2.590 2.640 2.720 2.770 2.714 2.604 2.534 2.574 2.624 2.564 2.624 2.734 2.879 2.889 2.829 2.779 2.749 2.649 2.679 2.709 2.706 2.726 2.696 2.706 2.816 2.586 2.506 2.446 2.300 2.260 2.290 2.350 2.430 2.460 2.420 2.460 2.485 2.535 2.375 2.375 2.355 2.205 2.125 2.185 2.262 2.452 2.682 2.202 2.282 2.262 2.462 2.372 2.412 2.422 2.482 2.652 2.602 2.692 2.602 2.442 2.381 2.361 2.381 2.391 2.261 2.321 2.401 2.461 2.787 3.037 3.237 3.227 3.207 3.157 2.957 2.717 2.626 2.626 2.616 2.606 2.576 2.586 2.506 2.586 2.648 2.598 2.588 2.698 2.658 2.758 2.758 2.638 2.653 2.683 2.673 2.693 2.763 2.703 2.693 2.693 2.686 2.736 2.746 2.766 2.786 2.716 2.726 2.836 2.790 2.810 2.930 2.940 2.890 2.580 2.420 2.270 2.349 2.269 2.309 2.319 2.339 2.349 2.339 2.429 2.390 2.250 2.120 2.090 2.050 1.950 2.070 2.300 2.093 2.183 2.193 2.123 2.103 2.123 1.993 1.833 1.946 1.826 1.596 1.576 1.856 2.186 2.246 2.316 2.246 2.216 2.216 2.876 2.566 2.406 2.276 2.456 2.878 2.488 2.528 2.458 2.548 2.178 2.048 2.078 2.234 2.124 2.194 2.024 1.804 1.754 1.724 1.774 1.676 1.736 1.746 1.746 1.736 1.766 1.816 1.836 1.804 1.844 2.214 2.824 2.984 2.934 2.904 2.894 2.960 2.830 2.640 2.530 2.580 2.600 2.660 2.880 4.497 4.517 3.047 4.957 3.107 3.097 3.167 3.187 3.301 3.251 3.381 3.231 3.241 3.161 2.961 2.981 3.023 2.983 3.223 3.293 3.283 3.343 3.343 3.423 3.391 3.431 3.431 3.371 3.371 3.301 3.271 3.201 3.140 3.110 3.250 3.340 3.540 3.580 3.570 3.590 3.564 3.694 2.964 2.604 2.624 2.634 2.634 2.594 2.656 2.806 2.846 3.166 3.296 3.306 3.286 3.006 2.175 1.895 1.775 1.675 1.685 1.655 1.605 1.525 1.525 1.595 1.615 1.535 1.555 1.575 1.705 1.785 1.938 1.948 1.928 1.898 1.908 1.828 1.938 1.988 2.008 1.808 1.798 1.718 1.728 1.828 2.228 2.128 1.985 1.995 1.975 1.815 2.985 2.935 2.945 3.235 3.351 3.291 3.401 3.401 2.391 2.571 3.241 3.171 3.164 3.114 3.044 3.064 3.104 3.114 3.094 3.034 2.992 3.072 3.102 3.042 2.682 2.442 2.362 2.412 2.428 2.088 1.998 1.938 1.848 1.848 1.878 1.818 2.059 1.919 2.009 1.999 2.459 2.099 2.219 2.409 2.248 2.228 2.198 2.298 2.378 2.228 2.228 2.218 2.230 2.180 2.170 2.230 2.280 2.380 2.340 2.380 2.480 2.340 2.320 2.440 2.430 2.310 2.250 2.310 2.356 2.236 2.176 2.156 2.066 2.056 2.096 2.056 2.015 2.215 2.445 2.605 2.425 2.325 2.355 2.295 2.283 2.273 2.273 2.303 2.193 2.203 2.303 2.303 2.308 2.318 2.318 2.418 2.458 2.648 2.388 2.358 2.355 2.355 2.345 2.345 2.395 2.265 2.225 2.215 2.238 2.268 2.338 2.368 2.398 2.418 2.358 2.338 2.399 2.379 2.399 2.499 2.489 2.349 2.339 2.519 2.579 2.489 2.509 2.599 2.669 2.679 2.589 2.549 2.399 2.439 2.459 2.429 2.289 2.209 2.179 2.179 2.203 2.053 2.083 2.043 2.063 1.983 2.043 2.153 2.129 1.989 1.709 1.689 1.479 1.319
2.769 2.719 2.599 2.609 2.599 2.579 2.559 2.519 2.461 2.531 2.571 2.581 2.661 2.681 2.731 2.741 2.684 2.674 2.544 2.524 2.824 2.584 2.684 2.714 2.905 2.905 2.875 2.775 2.715 2.725 2.665 2.705 2.734 2.824 2.744 2.694 2.714 2.654 2.474 2.334 2.229 2.239 2.269 2.379 2.429 2.429 2.379 2.419 2.647 2.837 2.777 2.437 2.387 2.247 2.167 2.137 2.263 2.263 2.233 2.233 2.223 2.273 2.433 2.393 2.428 2.408 2.368 2.498 2.508 2.618 2.508 2.368 2.322 2.252 2.212 2.192 2.282 2.842 3.142 3.162 3.228 3.288 3.328 3.318 3.308 3.208 3.038 2.748 2.612 2.642 2.682 2.672 2.622 2.592 2.552 2.642 2.718 2.648 2.688 2.788 2.708 2.738 2.688 2.748 2.708 2.728 2.728 2.728 2.718 2.698 2.688 2.728 2.647 2.627 2.727 2.727 2.737 2.597 2.637 2.817 2.690 2.670 2.530 2.490 2.490 2.400 2.350 2.240 2.233 1.563 2.233 2.203 2.203 2.413 2.363 2.473 2.295 2.155 2.095 2.025 1.985 1.965 1.905 2.105 2.067 2.127 2.107 2.157 2.017 1.967 1.937 1.847 1.831 1.781 1.651 1.591 1.781 2.181 2.171 2.211 2.290 2.580 2.300 2.490 2.870 2.270 2.550 2.660 2.371 2.741 2.461 2.541 2.461 2.251 1.841 1.961 2.074 2.074 1.914 1.854 1.794 1.734 1.794 1.694 1.675 1.715 1.735 1.735 1.735 1.755 1.775 1.785 1.862 1.902 2.172 2.792 2.852 2.832 2.842 2.932 2.851 2.831 2.651 2.531 2.591 2.621 2.601 2.801 4.487 4.517 3.067 3.777 3.017 3.067 3.157 3.137 3.207 3.247 3.327 3.327 3.317 3.227 3.007 2.997 2.995 3.035 3.195 3.495 3.425 3.435 3.405 3.485 3.417 3.447 3.467 3.397 3.377 3.307 3.297 3.237 3.184 3.144 3.284 3.344 3.514 3.554 3.554 3.654 3.644 3.694 3.114 2.754 2.654 2.634 2.684 2.624 2.748 2.838 2.858 3.078 3.258 3.318 3.368 3.028 2.452 2.062 1.852 1.662 1.622 1.572 1.582 1.552 1.544 1.604 1.634 1.574 1.654 1.794 1.984 2.034 2.216 2.346 2.326 1.986 1.976 1.846 1.936 1.956 2.016 1.866 1.776 1.776 1.776 1.856 2.276 2.146 1.959 1.989 1.959 1.869 2.729 2.949 2.949 3.049 3.308 3.328 3.388 3.438 3.338 2.758 3.018 3.138 3.158 3.128 3.088 3.118 3.138 3.108 3.088 3.028 2.985 2.765 2.915 2.635 2.345 2.205 2.115 2.175 2.318 2.188 2.078 1.998 1.878 1.868 1.908 1.908 2.030 2.070 2.200 2.370 2.550 2.290 2.400 2.260 2.349 2.419 2.389 2.269 2.319 2.319 2.269 2.249 2.274 2.214 2.234 2.354 2.394 2.494 2.474 2.424 2.506 2.406 2.436 2.396 2.476 2.456 2.176 2.266 2.356 2.436 2.206 2.156 1.996 2.056 2.106 2.076 2.023 2.213 2.383 2.463 2.483 2.363 2.343 2.333 2.288 2.308 2.148 2.188 2.188 2.218 2.308 2.278 2.313 2.403 2.423 2.433 2.453 2.393 2.413 2.353 2.347 2.357 2.287 2.347 2.287 2.267 2.267 2.257 2.238 2.238 2.228 2.278 2.348 2.418 2.328 2.358 2.399 2.419 2.429 2.459 2.509 2.389 2.399 2.569 2.660 2.610 2.560 2.610 2.730 2.650 2.580 2.420 2.372 2.462 2.562 2.452 2.412 2.252 2.142 2.092 2.118 2.238 2.108 1.998 1.978 1.908 1.948 2.018 1.925 1.855 1.665 1.415 1.395 1.275
2.669 2.619 2.629 2.649 2.649 2.619 2.539 2.399 2.431 2.621 2.581 2.601 2.741 2.791 2.761 2.731 2.754 2.844 2.854 2.864 2.914 2.754 2.594 2.734 2.875 2.945 2.915 2.885 2.825 2.705 2.645 2.725 2.734 2.704 2.694 2.664 2.674 2.584 2.434 2.274 2.199 2.229 2.229 2.299 2.349 2.379 2.409 2.379 2.577 2.737 2.677 2.527 2.377 2.327 2.297 2.157 2.283 2.183 2.123 2.183 2.253 2.203 2.283 2.403 2.408 2.388 2.368 2.468 2.408 2.518 2.328 2.278 2.192 2.162 2.172 2.242 2.312 2.582 3.152 3.232 3.238 3.268 3.298 3.278 3.278 3.158 3.018 2.838 2.602 2.622 2.612 2.712 2.652 2.682 2.632 2.612 2.658 2.708 2.888 2.798 2.728 2.708 2.688 2.748 2.708 2.748 2.788 2.778 2.698 2.648 2.638 2.678 2.617 2.637 2.597 2.707 2.697 2.597 2.627 2.557 2.530 2.480 2.540 2.410 2.330 2.370 2.300 2.220 2.183 2.113 2.233 2.193 2.173 2.233 2.303 2.413 2.195 2.095 2.135 2.195 1.895 1.875 2.005 1.965 2.097 2.027 1.927 2.037 2.127 2.057 2.037 1.817 1.911 1.831 1.691 1.611 1.671 1.871 1.961 2.081 2.120 2.230 2.220 2.360 2.210 2.110 2.240 2.300 2.631 2.661 2.711 2.851 2.521 2.161 1.981 1.941 2.084 2.054 1.834 1.814 1.964 1.734 1.754 1.704 1.675 1.685 1.765 1.705 1.745 1.755 1.745 1.795 1.842 1.822 1.952 2.662 2.862 2.852 2.892 2.912 2.961 2.971 2.781 2.571 2.601 2.601 2.651 2.851 2.967 2.997 3.037 2.997 3.067 3.037 3.187 3.177 3.247 3.407 3.307 3.277 3.347 3.287 3.047 3.007 3.025 3.055 3.155 3.405 3.445 3.485 3.485 3.545 3.447 3.537 3.447 3.437 3.387 3.377 3.327 3.287 3.224 3.164 3.164 3.284 3.434 3.544 3.574 3.574 3.584 3.684 3.194 2.814 2.674 2.634 2.674 2.644 2.708 2.778 2.868 3.028 3.238 3.228 3.228 3.048 2.202 1.692 1.652 1.632 1.612 1.582 1.552 1.582 1.634 1.594 1.634 1.624 1.684 1.754 1.864 2.054 2.046 2.106 2.076 2.046 2.036 2.026 1.976 1.856 1.876 1.906 1.796 1.816 1.816 1.846 2.096 2.126 1.919 1.939 1.969 2.099 2.199 3.049 2.879 2.979 3.258 3.328 3.378 3.338 3.408 3.368 3.138 3.148 3.148 3.118 3.138 3.138 3.158 3.108 3.078 3.078 3.105 2.335 2.205 2.035 2.015 2.005 2.065 2.145 2.308 2.268 2.208 2.058 1.978 1.868 1.958 2.028 2.270 2.240 2.290 2.470 2.590 2.470 2.360 2.300 2.339 2.499 2.449 2.489 2.369 2.349 2.299 2.339 2.364 2.284 2.474 2.404 2.404 2.474 2.534 2.534 2.466 2.376 2.416 2.426 2.486 2.496 2.166 2.166 2.346 2.436 2.236 2.226 1.956 2.026 2.116 2.116 2.043 2.063 2.193 2.323 2.413 2.403 2.303 2.263 2.228 2.148 2.228 2.228 2.298 2.298 2.228 2.498 2.333 2.293 2.283 2.453 2.463 2.373 2.393 2.373 2.277 2.337 2.237 2.287 2.297 2.367 2.307 2.287 2.228 2.208 2.198 2.178 2.268 2.328 2.398 2.348 2.379 2.359 2.379 2.429 2.469 2.379 2.559 2.619 2.650 2.620 2.630 2.570 2.600 2.540 2.510 2.470 2.462 2.492 2.572 2.452 2.502 2.442 2.232 2.102 2.028 2.068 2.068 1.928 1.918 1.818 1.858 1.828 1.805 1.865 1.735 1.505 1.515 1.235
2.669 2.679 2.649 2.659 2.649 2.579 2.509 2.419 2.461 2.611 2.591 2.611 2.781 2.881 2.751 2.721 2.694 2.674 2.724 2.814 2.884 2.714 2.644 2.784 2.835 3.025 2.945 2.815 2.805 2.735 2.595 2.675 2.624 2.574 2.564 2.644 2.634 2.524 2.424 2.294 2.209 2.229 2.219 2.269 2.339 2.409 2.479 2.399 2.567 2.587 2.647 2.567 2.387 2.337 2.357 2.257 2.233 2.243 2.213 2.193 2.163 2.153 2.203 2.283 2.398 2.278 2.228 2.298 2.348 2.198 2.328 2.228 2.142 2.152 2.162 2.472 2.612 2.392 3.182 3.182 3.208 3.238 3.178 3.168 3.168 3.148 3.008 2.878 2.632 2.572 2.602 2.652 2.732 2.682 2.672 2.752 2.778 2.808 2.788 2.768 2.718 2.788 2.788 2.778 2.768 2.768 2.758 2.688 2.648 2.618 2.648 2.618 2.607 2.627 2.597 2.597 2.627 2.647 2.477 2.467 2.450 2.460 2.400 2.330 2.280 2.270 2.280 2.160 2.173 2.093 2.123 2.183 2.063 2.193 2.193 2.293 2.095 2.015 2.025 2.065 1.845 1.895 1.845 2.025 2.037 2.117 2.087 2.167 2.127 2.037 2.087 1.987 1.781 1.821 1.661 1.581 1.571 1.811 1.691 2.051 2.040 2.040 2.150 2.220 2.090 2.290 2.430 2.590 2.631 2.991 3.371 2.881 2.911 2.361 2.031 2.091 2.094 2.124 1.934 1.924 1.944 1.814 1.714 1.704 1.665 1.675 1.695 1.715 1.745 1.755 1.755 1.775 1.762 1.752 1.882 2.692 2.702 2.892 2.952 2.952 2.951 3.011 2.811 2.591 2.661 2.611 2.671 2.871 3.047 3.097 3.077 3.077 3.097 3.047 3.107 3.247 3.257 3.397 3.307 3.367 3.237 3.337 3.107 3.017 3.035 3.005 3.145 3.335 3.465 3.485 3.535 3.585 3.687 3.497 3.467 3.577 3.427 3.447 3.347 3.327 3.264 3.194 3.134 3.254 3.354 3.524 3.564 3.584 3.614 3.674 3.554 2.844 2.814 2.764 2.694 2.694 2.638 2.668 2.918 2.948 3.238 3.258 3.238 3.148 1.932 1.682 1.682 1.632 1.622 1.632 1.692 1.702 1.694 1.624 1.654 1.674 1.704 1.804 1.904 2.004 2.056 2.086 1.986 2.086 2.156 2.226 2.216 2.316 2.276 2.246 2.126 1.856 1.846 1.836 2.036 1.996 1.839 1.869 2.019 1.959 1.979 2.409 2.939 2.979 3.068 3.258 3.308 3.328 3.328 3.288 3.238 3.188 3.138 3.158 3.188 3.148 3.108 3.118 3.068 3.158 2.885 2.055 1.975 1.945 1.975 1.995 2.055 2.095 2.248 2.288 2.328 2.358 2.148 1.948 2.038 2.108 2.320 2.330 2.420 2.480 2.500 2.480 2.320 2.290 2.219 2.339 2.379 2.449 2.419 2.429 2.419 2.429 2.424 2.364 2.374 2.444 2.434 2.374 2.314 2.354 2.396 2.456 2.346 2.406 2.446 2.396 2.216 2.146 2.176 2.366 2.306 2.296 2.026 1.926 2.106 2.136 2.083 2.133 2.193 2.263 2.363 2.363 2.263 2.213 2.198 2.268 2.198 2.218 2.258 2.458 2.348 2.248 2.303 2.303 2.293 2.473 2.503 2.563 2.463 2.423 2.297 2.337 2.217 2.287 2.367 2.527 2.367 2.317 2.318 2.268 2.228 2.208 2.308 2.388 2.428 2.408 2.349 2.349 2.369 2.389 2.339 2.349 2.569 2.579 2.660 2.630 2.560 2.560 2.530 2.500 2.520 2.450 2.432 2.462 2.492 2.552 2.452 2.332 2.322 2.202 2.008 1.968 1.958 1.958 1.878 1.858 1.828 1.758 1.715 1.615 1.585 1.555 1.315 1.155
2.669 2.619 2.579 2.559 2.569 2.559 2.479 2.439 2.491 2.591 2.721 2.691 2.741 2.871 2.721 2.711 2.664 2.604 2.654 2.674 2.784 2.694 2.784 2.874 2.845 2.865 2.835 2.755 2.795 2.675 2.655 2.615 2.674 2.744 2.854 3.084 2.714 2.434 2.354 2.334 2.229 2.199 2.239 2.289 2.509 2.539 2.489 2.429 2.527 2.557 2.607 2.447 2.357 2.397 2.347 2.307 2.253 2.173 2.123 2.123 2.153 2.123 2.143 2.163 2.158 2.128 2.178 2.128 2.228 2.178 2.188 2.208 2.282 2.372 2.392 2.482 2.572 2.412 3.142 3.242 3.138 3.128 3.138 3.128 3.108 3.168 3.088 2.878 2.602 2.592 2.562 2.552 2.572 2.672 2.702 2.742 2.728 2.698 2.728 2.758 2.888 2.978 3.028 2.798 2.778 2.738 2.698 2.668 2.798 2.658 2.648 2.618 2.597 2.597 2.607 2.567 2.557 2.477 2.507 2.487 2.390 2.350 2.300 2.230 2.270 1.960 1.970 2.190 2.183 2.083 2.193 2.093 2.013 2.073 1.983 1.883 1.925 1.935 2.005 1.795 1.805 1.895 2.025 1.945 2.007 1.967 2.097 2.217 2.157 2.137 2.017 1.987 1.901 1.831 1.781 1.581 1.581 1.881 1.731 1.641 1.710 2.010 2.170 2.290 2.470 2.950 2.560 2.880 2.751 3.021 2.911 2.921 2.991 2.811 2.531 2.361 2.234 2.294 2.064 2.224 1.904 1.694 1.744 1.754 1.765 1.635 1.715 1.675 1.755 1.745 1.755 1.785 1.772 1.772 1.912 2.462 2.722 2.882 2.972 2.922 2.941 2.891 2.921 2.761 2.611 2.651 2.671 2.761 3.057 3.107 3.047 3.097 3.117 3.107 3.137 3.287 3.257 3.467 3.307 3.207 3.237 3.327 3.147 3.037 3.055 3.045 3.145 3.405 3.475 3.555 3.685 3.615 3.697 3.527 3.517 3.527 3.487 3.447 3.367 3.367 3.304 3.234 3.184 3.234 3.284 3.394 3.554 3.584 3.614 3.664 3.594 3.404 3.474 3.064 2.704 2.744 2.698 2.798 2.898 2.958 3.168 3.278 3.288 3.158 2.222 1.822 1.682 1.692 1.662 1.782 1.732 1.892 1.734 1.724 1.674 1.704 1.724 1.904 1.984 1.964 1.976 1.986 1.976 2.026 2.186 2.396 2.316 2.356 2.346 2.236 2.096 1.876 1.876 1.836 1.966 2.006 1.979 1.999 2.169 2.029 1.819 1.999 2.639 3.039 3.078 3.128 3.268 3.248 3.298 3.298 3.268 3.198 3.178 3.208 3.198 3.148 3.128 3.088 3.158 2.938 2.075 1.975 1.915 1.965 1.895 1.975 1.995 2.035 2.168 2.388 2.328 2.308 2.288 2.198 2.098 2.158 2.290 2.390 2.440 2.550 2.510 2.570 2.360 2.350 2.319 2.389 2.429 2.469 2.479 2.459 2.449 2.489 2.464 2.454 2.364 2.334 2.364 2.304 2.304 2.374 2.446 2.446 2.296 2.286 2.346 2.306 2.316 2.196 2.166 2.166 2.236 2.356 2.186 1.916 2.046 2.126 2.123 2.113 2.153 2.233 2.323 2.293 2.313 2.213 2.138 2.318 2.248 2.188 2.248 2.368 2.318 2.308 2.323 2.313 2.283 2.483 2.603 2.703 2.753 2.453 2.337 2.317 2.257 2.297 2.347 2.387 2.337 2.407 2.488 2.298 2.278 2.288 2.378 2.458 2.538 2.338 2.319 2.299 2.359 2.279 2.259 2.279 2.439 2.529 2.650 2.540 2.530 2.500 2.550 2.620 2.630 2.530 2.422 2.432 2.492 2.492 2.352 2.412 2.352 2.242 2.128 1.978 1.908 1.878 1.868 1.918 1.818 1.738 1.535 1.655 1.615 1.475 1.285 1.205
2.589 2.589 2.509 2.519 2.489 2.539 2.489 2.459 2.521 2.621 2.671 2.711 2.751 2.801 2.711 2.681 2.674 2.694 2.764 2.824 2.924 2.894 2.774 2.954 2.785 2.765 2.705 2.685 2.575 2.665 2.525 2.525 2.644 2.794 2.844 2.864 2.454 2.454 2.394 2.254 2.149 2.149 2.289 2.409 2.559 2.509 2.469 2.439 2.447 2.427 2.437 2.457 2.437 2.437 2.287 2.187 2.143 2.133 2.133 2.183 2.313 2.113 2.073 2.163 2.138 2.138 2.198 2.188 2.548 2.578 2.448 2.348 2.342 2.402 2.392 2.502 2.542 2.522 3.202 3.152 3.128 3.178 3.188 3.168 3.128 3.148 3.068 2.948 2.712 2.542 2.572 2.532 2.552 2.682 2.712 2.712 2.698 2.838 2.768 2.788 2.848 2.948 3.038 2.918 2.798 2.828 2.878 2.888 2.928 2.798 2.728 2.598 2.597 2.567 2.517 2.477 2.487 2.547 2.457 2.477 2.340 2.220 2.110 1.950 1.980 1.950 2.030 2.050 2.053 2.103 1.953 1.893 1.873 1.893 1.943 2.003 1.925 1.925 1.905 1.795 1.795 1.915 1.915 1.925 1.957 1.847 2.097 2.157 2.237 2.127 1.937 2.037 1.901 1.791 1.771 1.601 1.601 1.711 1.881 1.871 1.840 2.130 2.150 2.610 2.490 3.110 2.910 3.080 2.941 3.141 2.991 2.821 3.001 2.961 2.721 2.571 2.534 2.404 2.404 2.294 2.284 1.954 1.764 1.734 1.775 1.675 1.685 1.695 1.725 1.765 1.785 1.775 1.772 1.802 1.912 2.172 2.782 2.902 2.982 3.042 3.051 3.041 3.061 2.781 2.641 2.661 2.681 2.681 2.997 3.107 3.017 3.047 3.177 3.067 3.087 3.177 3.247 3.487 3.497 3.407 3.407 3.457 3.267 3.057 3.075 3.135 3.075 3.315 3.535 3.605 3.715 3.695 3.657 3.497 3.437 3.427 3.457 3.457 3.417 3.357 3.344 3.284 3.174 3.144 3.244 3.314 3.514 3.534 3.554 3.554 3.524 3.604 3.654 3.334 2.764 2.754 2.708 2.808 2.848 2.948 3.128 3.408 3.258 3.168 2.692 2.262 1.882 1.752 1.722 1.772 1.792 1.802 1.764 1.804 1.694 1.734 1.714 1.804 1.864 1.924 1.916 1.956 1.936 1.996 2.076 2.276 2.236 2.236 2.396 2.226 2.156 1.946 1.906 1.886 2.006 2.026 2.049 1.989 2.109 2.079 2.099 2.079 2.899 3.139 3.158 3.218 3.238 3.188 3.188 3.288 3.228 3.228 3.238 3.228 3.198 3.158 3.108 3.108 3.078 2.228 1.965 1.955 1.915 2.075 2.105 2.115 1.915 1.955 2.048 2.248 2.288 2.288 2.288 2.318 2.208 2.218 2.270 2.350 2.300 2.400 2.410 2.450 2.410 2.400 2.389 2.419 2.419 2.439 2.449 2.399 2.439 2.529 2.484 2.484 2.414 2.314 2.344 2.294 2.324 2.384 2.406 2.406 2.316 2.386 2.326 2.306 2.276 2.136 2.156 2.196 2.206 2.326 2.316 1.936 2.016 2.116 2.103 2.103 2.183 2.243 2.293 2.223 2.273 2.243 2.238 2.218 2.258 2.298 2.208 2.328 2.328 2.278 2.323 2.283 2.263 2.493 2.653 2.623 2.683 2.473 2.277 2.237 2.267 2.297 2.347 2.347 2.327 2.337 2.398 2.388 2.418 2.488 2.418 2.318 2.308 2.268 2.309 2.279 2.189 2.209 2.229 2.309 2.539 2.519 2.490 2.520 2.480 2.550 2.570 2.550 2.590 2.440 2.452 2.312 2.342 2.322 2.352 2.262 2.232 2.222 2.258 2.128 1.888 1.828 1.788 1.818 1.748 1.898 1.875 1.705 1.605 1.425 1.465 1.205
2.559 2.569 2.499 2.479 2.459 2.509 2.489 2.489 2.561 2.601 2.691 2.711 2.731 2.771 2.661 2.661 2.624 2.754 2.824 2.784 2.824 2.804 2.884 2.784 2.695 2.505 2.325 2.415 2.365 2.515 2.405 2.505 2.454 2.684 2.794 2.764 2.594 2.514 2.444 2.254 2.179 2.249 2.309 2.409 2.499 2.479 2.459 2.469 2.397 2.367 2.347 2.347 2.367 2.437 2.257 2.157 2.123 2.143 2.143 2.073 2.053 2.073 2.173 2.333 2.208 2.248 2.348 2.318 2.558 2.688 2.548 2.338 2.362 2.452 2.492 2.592 2.482 2.652 2.792 3.112 3.128 3.168 3.108 3.138 3.088 3.068 3.068 2.978 2.702 2.542 2.552 2.562 2.542 2.672 2.892 2.812 2.778 2.848 2.858 2.768 2.818 2.918 3.018 2.928 2.838 2.798 2.728 2.938 2.868 2.678 2.418 2.398 2.407 2.277 2.267 2.327 2.397 2.427 2.457 2.347 2.090 2.070 1.910 1.910 1.870 2.000 2.180 2.040 1.883 1.963 1.913 1.943 1.953 2.023 1.953 1.953 2.055 1.925 1.915 1.825 1.925 1.895 2.055 1.745 1.877 1.957 1.957 2.177 2.167 2.027 1.927 1.847 1.931 2.021 1.861 1.651 1.571 1.641 1.931 1.971 1.920 2.070 2.000 2.610 2.840 2.720 2.990 3.110 3.211 3.311 3.131 3.091 3.211 3.071 3.101 2.961 2.514 2.274 2.294 2.334 2.094 1.924 1.834 1.714 1.745 1.665 1.705 1.745 1.755 1.815 1.835 1.765 1.772 1.782 1.852 1.992 3.022 3.022 3.132 3.062 3.091 3.081 3.121 2.891 2.681 2.681 2.661 2.711 2.937 2.987 3.057 3.057 3.307 3.147 3.187 3.217 3.267 3.387 3.477 3.437 3.457 3.467 3.337 3.107 3.145 3.085 3.135 3.305 3.515 3.615 3.745 3.695 3.687 3.587 3.517 3.557 3.547 3.507 3.457 3.367 3.364 3.314 3.244 3.184 3.204 3.264 3.374 3.494 3.514 3.524 3.534 3.594 3.594 3.424 2.734 2.774 2.728 2.778 2.858 2.948 3.098 3.308 3.218 3.228 3.042 2.582 2.282 1.922 1.752 1.722 1.762 1.792 1.784 1.804 1.724 1.764 1.734 1.794 1.904 1.814 1.946 1.976 1.966 1.966 2.076 2.126 2.166 2.096 2.256 2.256 2.136 1.976 1.966 1.906 1.966 2.066 1.939 1.959 1.999 2.009 2.169 2.479 2.389 3.169 3.278 3.338 3.278 3.238 3.178 3.218 3.248 3.268 3.248 3.228 3.188 3.138 3.068 2.898 2.318 2.048 1.985 1.965 2.075 2.085 2.105 2.005 2.005 1.885 2.048 2.158 2.388 2.278 2.278 2.288 2.218 2.278 2.340 2.350 2.330 2.340 2.380 2.360 2.350 2.310 2.289 2.309 2.389 2.439 2.439 2.409 2.399 2.459 2.434 2.444 2.444 2.314 2.374 2.324 2.334 2.404 2.466 2.346 2.316 2.266 2.306 2.256 2.196 2.186 2.166 2.196 2.236 2.226 2.216 2.006 2.006 2.086 2.093 2.163 2.153 2.173 2.193 2.173 2.113 2.273 2.258 2.218 2.308 2.618 2.408 2.218 2.188 2.208 2.253 2.283 2.313 2.533 2.573 2.663 2.713 2.593 2.297 2.247 2.317 2.317 2.287 2.297 2.367 2.377 2.408 2.588 2.628 2.378 2.318 2.348 2.318 2.228 2.269 2.199 2.139 2.209 2.279 2.559 2.899 2.569 2.500 2.380 2.400 2.480 2.520 2.480 2.590 2.350 2.262 2.032 2.242 2.302 2.272 2.162 2.142 2.092 2.128 1.958 1.788 1.758 1.738 1.708 1.718 1.648 1.675 1.615 1.575 1.405 1.235 1.285
2.609 2.599 2.579 2.529 2.509 2.559 2.539 2.579 2.601 2.671 2.631 2.671 2.691 2.721 2.691 2.631 2.604 2.644 2.714 2.674 2.634 2.614 2.724 2.394 2.405 2.395 2.335 2.315 2.325 2.335 2.365 2.415 2.534 2.474 2.654 2.604 2.454 2.534 2.424 2.344 2.229 2.359 2.409 2.459 2.489 2.459 2.419 2.349 2.257 2.157 2.217 2.177 2.157 2.407 2.297 2.127 2.123 2.153 2.143 2.163 2.053 2.053 2.233 2.403 2.338 2.258 2.278 2.368 2.378 2.378 2.428 2.438 2.442 2.482 2.492 2.522 2.612 2.622 2.832 3.142 3.188 3.108 3.188 3.218 3.188 3.178 3.148 3.098 2.772 2.592 2.522 2.552 2.512 2.592 2.752 2.792 2.788 2.838 2.878 2.798 2.828 2.798 2.778 2.788 2.628 2.608 2.568 2.598 2.468 2.448 2.328 2.348 2.267 2.247 2.277 2.387 2.277 2.337 2.137 2.097 2.050 1.930 1.910 1.920 2.040 1.910 1.850 1.830 1.883 1.853 1.873 1.873 1.823 1.873 1.893 1.873 1.945 1.855 1.885 1.865 1.795 2.115 1.945 1.805 1.897 1.877 1.987 2.057 2.127 1.977 1.797 1.777 2.061 2.081 1.961 1.701 1.571 1.651 1.751 1.681 1.780 1.920 2.040 2.410 2.800 2.740 3.030 3.390 3.121 3.181 3.791 3.101 2.991 3.401 2.931 2.991 2.554 2.254 2.324 2.214 2.234 1.894 1.764 1.704 1.735 1.695 1.685 1.715 1.775 1.785 1.795 1.845 1.742 1.752 1.792 1.972 2.932 2.892 3.132 3.072 3.091 3.061 3.131 2.941 2.721 2.701 2.711 2.811 2.867 3.177 3.127 3.117 3.177 3.107 3.217 3.267 3.267 3.537 3.427 3.397 3.327 3.297 3.357 3.177 3.115 3.145 3.115 3.265 3.495 3.545 3.545 3.635 3.547 3.607 3.667 3.577 3.617 3.567 3.457 3.407 3.384 3.344 3.284 3.214 3.164 3.254 3.294 3.454 3.464 3.484 3.514 3.604 3.604 3.594 2.964 2.764 2.758 2.688 2.738 2.968 3.078 3.278 3.268 3.308 3.102 2.432 2.212 1.922 1.742 1.702 1.722 1.772 1.834 1.824 1.774 1.814 1.824 1.844 1.834 1.944 1.966 1.876 1.956 2.026 2.026 1.996 2.046 2.186 2.316 2.356 2.146 2.086 1.966 1.926 1.996 2.036 2.039 1.969 2.059 2.149 2.249 2.269 2.189 3.229 3.368 3.368 3.308 3.318 3.228 3.268 3.278 3.268 3.248 3.228 3.168 3.078 2.658 2.348 1.998 2.028 2.075 1.905 2.025 2.085 2.085 2.035 2.045 1.965 2.048 2.118 2.178 2.228 2.308 2.258 2.278 2.328 2.330 2.340 2.290 2.310 2.330 2.240 2.250 2.320 2.249 2.209 2.339 2.359 2.419 2.459 2.479 2.459 2.454 2.334 2.424 2.334 2.354 2.384 2.454 2.384 2.506 2.376 2.336 2.356 2.346 2.246 2.326 2.316 2.196 2.186 2.276 2.306 2.256 2.116 2.006 2.056 2.113 2.133 2.143 2.143 2.223 2.163 2.143 2.233 2.258 2.318 2.198 2.308 2.448 2.248 2.278 2.278 2.403 2.363 2.353 2.563 2.593 2.603 2.593 2.593 2.267 2.287 2.277 2.287 2.357 2.377 2.337 2.347 2.568 2.658 2.528 2.398 2.318 2.308 2.258 2.238 2.179 2.169 2.219 2.259 2.299 2.559 2.679 2.839 2.680 2.280 2.350 2.420 2.480 2.470 2.400 2.380 2.042 2.042 2.112 2.172 2.152 2.062 2.042 1.992 1.918 1.768 1.738 1.818 1.788 1.678 1.658 1.648 1.645 1.595 1.535 1.335 1.275 1.205
2.609 2.639 2.619 2.569 2.569 2.619 2.579 2.609 2.601 2.641 2.651 2.621 2.611 2.631 2.621 2.621 2.564 2.614 2.564 2.594 2.574 2.474 2.404 2.354 2.325 2.445 2.325 2.305 2.305 2.295 2.365 2.295 2.404 2.324 2.324 2.404 2.344 2.384 2.384 2.374 2.409 2.459 2.459 2.449 2.459 2.419 2.299 2.289 2.207 2.147 2.127 2.077 2.187 2.347 2.367 2.157 2.123 2.233 2.133 2.123 2.083 2.053 2.163 2.373 2.278 2.238 2.298 2.268 2.328 2.388 2.348 2.398 2.492 2.552 2.512 2.562 2.612 2.662 2.692 3.232 3.198 3.118 3.168 3.308 3.278 3.228 3.108 3.058 2.792 2.542 2.552 2.502 2.452 2.622 2.682 2.732 2.758 2.738 2.718 2.778 2.748 2.778 2.738 2.668 2.528 2.638 2.598 2.518 2.368 2.378 2.388 2.278 2.307 2.297 2.237 2.157 2.187 2.247 2.167 2.207 2.050 1.900 1.970 1.780 1.830 1.790 1.910 1.780 1.843 1.883 1.823 1.793 1.763 1.773 1.833 1.843 1.805 1.755 1.875 1.985 1.935 1.935 2.045 2.025 1.987 1.897 2.067 2.247 2.047 1.837 1.817 1.947 1.971 2.121 2.001 2.111 1.581 1.691 1.541 1.571 1.780 1.800 1.880 2.280 2.730 2.290 2.710 3.020 2.971 3.421 3.161 3.431 3.301 3.331 3.011 2.861 2.624 2.764 2.354 2.104 2.124 1.934 1.684 1.574 1.695 1.695 1.675 1.665 1.735 1.725 1.705 1.755 1.742 1.732 1.762 1.902 2.592 2.862 3.072 3.062 3.101 3.031 3.091 3.011 2.781 2.721 2.731 2.741 2.937 3.147 3.097 3.107 3.137 3.307 3.147 3.237 3.297 3.317 3.297 3.327 3.387 3.357 3.387 3.207 3.125 3.165 3.135 3.225 3.465 3.625 3.615 3.655 3.607 3.637 3.737 3.557 3.577 3.577 3.507 3.467 3.384 3.374 3.314 3.264 3.174 3.214 3.264 3.384 3.414 3.454 3.424 3.514 3.544 3.574 3.094 2.774 2.788 2.738 2.908 2.978 3.028 3.218 3.268 3.298 3.182 2.252 1.932 1.762 1.692 1.712 1.712 1.872 1.914 1.914 1.844 1.844 1.874 1.844 2.004 1.944 2.056 2.086 2.166 2.166 2.096 1.966 2.006 2.146 2.266 2.236 2.246 2.086 1.956 1.966 1.996 2.036 2.139 2.119 2.149 2.229 2.259 2.309 2.189 3.279 3.368 3.348 3.328 3.288 3.278 3.308 3.288 3.278 3.248 3.188 3.118 2.898 2.238 1.958 1.888 1.928 2.115 1.985 1.925 2.095 2.185 2.135 2.005 2.015 2.038 2.088 2.178 2.198 2.288 2.318 2.288 2.308 2.280 2.500 2.170 2.210 2.220 2.190 2.230 2.350 2.319 2.219 2.279 2.319 2.289 2.459 2.519 2.489 2.464 2.324 2.414 2.374 2.304 2.334 2.464 2.434 2.426 2.416 2.396 2.346 2.476 2.456 2.466 2.476 2.216 2.196 2.386 2.426 2.296 2.206 2.046 2.046 2.133 2.113 2.133 2.263 2.363 2.323 2.133 2.213 2.318 2.388 2.168 2.298 2.268 2.278 2.548 2.608 2.453 2.423 2.453 2.523 2.493 2.453 2.523 2.553 2.397 2.437 2.467 2.447 2.437 2.337 2.297 2.257 2.518 2.668 2.518 2.378 2.378 2.328 2.218 2.158 2.219 2.509 2.409 2.469 2.349 2.699 2.659 2.959 2.580 2.340 2.260 2.250 2.510 2.490 2.300 1.990 1.892 1.952 1.962 1.992 2.002 2.002 1.882 1.762 1.758 1.768 1.818 2.008 1.928 1.768 1.628 1.618 1.635 1.545 1.375 1.315 1.255 1.205
